0.0,0.0,0.0,0.0,0.0,0.0,0.0,0.0,0.0,0.0,0.0,0.0,0.0,0.0,0.0,0.0,0.0,0.0,0.0,0.0,0.0,0.0,0.0,0.0,0.0,0.0,0.0,0.0,0.0,0.0,0.0,0.0,0.0,1.43506761268,1.43506761268,1.43506761268,1.43506761268,0.0,0.0,0.0,0.0,0.0,0.0,0.0,0.0,0.0,0.0,0.0,0.0,0.0,1.20108919757,1.18549063656,1.18549063656,1.16989207555,1.15429351454,1.15429351454,1.13869495354,1.13869495354,1.12309639253,1.12309639253,1.10749783152,1.10749783152,1.09189927051,1.07630070951,1.0607021485,1.04510358749,1.02950502649,1.01390646548,1.01390646548,0.998307904471,0.982709343463,0.982709343463,0.967110782456,0.951512221449,0.935913660441,0.935913660441,0.920315099434,0.904716538427,0.904716538427,0.889117977419,0.889117977419,0.873519416412,0.873519416412,0.857920855404,0.857920855404,0.842322294397,0.82672373339,0.811125172382,0.811125172382,0.795526611375,0.779928050368,0.779928050368,0.76432948936,0.748730928353,0.748730928353,0.733132367346,0.717533806338,0.717533806338,0.701935245331,0.701935245331,0.686336684324,0.686336684324,0.670738123316,0.655139562309,0.639541001302,0.639541001302,0.623942440294,0.608343879287,0.608343879287,0.592745318279,0.577146757272,0.577146757272,0.561548196265,0.561548196265,0.545949635257,0.545949635257,0.53035107425,0.53035107425,0.514752513243,0.499153952235,0.499153952235,0.483555391228,0.483555391228,0.467956830221,0.452358269213,0.452358269213,0.436759708206,0.436759708206,0.421161147199,0.421161147199,0.405562586191,0.405562586191,0.389964025184,0.389964025184,0.374365464176,0.374365464176,0.358766903169,0.358766903169,0.343168342162,0.343168342162,0.327569781154,0.311971220147,0.311971220147,0.29637265914,0.29637265914,0.280774098132,0.280774098132,0.265175537125,0.265175537125,0.249576976118,0.249576976118,0.23397841511,0.23397841511,0.218379854103,0.218379854103,0.202781293096,0.202781293096,0.187182732088,0.187182732088,0.171584171081,0.171584171081,0.155985610074,0.155985610074,0.140387049066,0.140387049066,0.124788488059,0.109189927051,0.109189927051,0.0935913660441,0.0935913660441,0.0779928050368,0.0779928050368,0.0623942440294,0.0623942440294,0.0623942440294,0.0467956830221,0.0467956830221,0.0311971220147,0.0311971220147,0.0155985610074,0.0155985610074,0.0,0.0,-0.0155985610074,-0.0155985610074,-0.0311971220147,-0.0311971220147,-0.0467956830221,-0.0467956830221,-0.0623942440294,-0.0623942440294,-0.0779928050368,-0.0779928050368,-0.0935913660441,-0.0935913660441,-0.0935913660441,-0.109189927051,-0.109189927051,-0.124788488059,-0.124788488059,-0.140387049066,-0.140387049066,-0.155985610074,-0.155985610074,-0.155985610074,-0.171584171081,-0.171584171081,-0.187182732088,-0.187182732088,-0.202781293096,-0.202781293096,-0.218379854103,-0.218379854103,-0.218379854103,-0.23397841511,-0.23397841511,-0.249576976118,-0.249576976118,-0.265175537125,-0.265175537125,-0.265175537125,-0.280774098132,-0.280774098132,-0.29637265914,-0.29637265914,-0.311971220147,-0.311971220147,-0.327569781154,-0.327569781154,-0.327569781154,-0.343168342162,-0.343168342162,-0.358766903169,-0.358766903169,-0.358766903169,-0.374365464176,-0.374365464176,-0.374365464176,-0.389964025184,-0.389964025184,-0.405562586191,-0.405562586191,-0.405562586191,-0.421161147199,-0.421161147199,-0.436759708206,-0.436759708206,-0.452358269213,-0.452358269213,-0.452358269213,-0.467956830221,-0.467956830221,-0.483555391228,-0.483555391228,-0.483555391228,-0.499153952235,-0.499153952235,-0.514752513243,-0.514752513243,-0.514752513243,-0.53035107425,-0.53035107425,-0.545949635257,-0.545949635257,-0.545949635257,-0.561548196265,-0.561548196265,-0.577146757272,-0.577146757272,-0.577146757272,-0.592745318279,-0.592745318279,-0.608343879287,-0.608343879287,-0.608343879287,-0.623942440294,-0.623942440294,-0.623942440294,-0.639541001302,-0.639541001302,-0.655139562309,-0.655139562309,-0.655139562309,-0.670738123316,-0.670738123316,-0.686336684324,-0.686336684324,-0.686336684324,-0.701935245331,-0.701935245331,-0.701935245331,-0.717533806338,-0.717533806338,-0.733132367346,-0.733132367346,-0.733132367346,-0.748730928353,-0.748730928353,-0.748730928353,-0.76432948936,-0.76432948936,-0.76432948936,-0.779928050368,-0.779928050368,-0.795526611375,-0.795526611375,-0.811125172382,-0.811125172382,-0.811125172382,-0.82672373339,-0.82672373339,-0.82672373339,-0.842322294397,-0.842322294397,-0.842322294397,-0.857920855404,-0.857920855404,-0.857920855404,-0.873519416412,-0.873519416412,-0.873519416412,-0.889117977419,-0.889117977419,-0.889117977419,-0.904716538427,-0.904716538427,-0.904716538427,-0.920315099434,-0.920315099434,-0.920315099434,-0.935913660441,-0.935913660441,-0.935913660441,-0.951512221449,-0.951512221449,-0.951512221449,-0.967110782456,-0.967110782456,-0.967110782456,-0.982709343463,-0.982709343463,-0.982709343463,-0.998307904471,-0.998307904471,-0.998307904471,-1.01390646548,-1.01390646548,-1.01390646548,-1.02950502649,-1.02950502649,-1.04510358749,-1.04510358749,-1.04510358749,-1.0607021485,-1.0607021485,-1.0607021485,-1.07630070951,-1.07630070951,-1.07630070951,-1.07630070951,-1.09189927051,-1.09189927051,-1.09189927051,-1.10749783152,-1.10749783152,-1.12309639253,-1.12309639253,-1.12309639253,-1.13869495354,-1.13869495354,-1.13869495354,-1.13869495354,-1.15429351454,-1.15429351454,-1.15429351454,-1.16989207555,-1.16989207555,-1.16989207555,-1.18549063656,-1.18549063656,-1.18549063656,-1.20108919757,-1.20108919757,-1.21668775857,-1.21668775857,-1.21668775857,-1.21668775857,-1.23228631958,-1.23228631958,-1.23228631958,-1.24788488059,-1.24788488059,-1.24788488059,-1.2634834416,-1.2634834416,-1.2634834416,-1.2634834416,-1.2790820026,-1.2790820026,-1.2790820026,-1.29468056361,-1.29468056361,-1.29468056361,-1.29468056361,-1.29468056361,-1.29468056361,-1.29468056361,-1.29468056361,-1.29468056361,-1.29468056361,-1.29468056361,-1.29468056361,-1.29468056361,0.0,0.0,0.0,0.0,0.0,0.0,0.0,0.0,0.0,0.0,0.0,0.0,0.0,0.0,0.0,0.0,0.0,0.0,0.0,0.0,0.0,0.0,0.0,0.0,0.0,0.0,0.0,0.0,0.0,0.0,0.0,0.0,0.0,0.0
0.0,0.0,0.0,0.0,0.0,0.0,0.0,0.0,0.0,0.0,0.0,0.0,0.0,0.0,0.0,0.0,0.0,0.0,0.0,0.0,0.0,0.0,0.0,0.0,0.0,0.0,0.0,0.0,0.0,0.0,0.0,0.0,1.43506761268,1.43506761268,1.43506761268,1.43506761268,1.41946905167,1.43506761268,0.0,0.0,0.0,0.0,0.0,0.0,0.0,0.0,1.2634834416,1.24788488059,1.21668775857,1.20108919757,1.20108919757,1.18549063656,1.18549063656,1.16989207555,1.16989207555,1.15429351454,1.13869495354,1.13869495354,1.12309639253,1.12309639253,1.10749783152,1.10749783152,1.09189927051,1.07630070951,1.0607021485,1.04510358749,1.02950502649,1.02950502649,1.01390646548,0.998307904471,0.998307904471,0.982709343463,0.967110782456,0.951512221449,0.951512221449,0.935913660441,0.920315099434,0.920315099434,0.904716538427,0.904716538427,0.889117977419,0.889117977419,0.873519416412,0.857920855404,0.857920855404,0.842322294397,0.82672373339,0.82672373339,0.811125172382,0.795526611375,0.779928050368,0.779928050368,0.76432948936,0.748730928353,0.748730928353,0.733132367346,0.717533806338,0.717533806338,0.701935245331,0.701935245331,0.686336684324,0.686336684324,0.670738123316,0.655139562309,0.639541001302,0.639541001302,0.623942440294,0.608343879287,0.608343879287,0.592745318279,0.592745318279,0.577146757272,0.577146757272,0.561548196265,0.561548196265,0.545949635257,0.545949635257,0.53035107425,0.514752513243,0.514752513243,0.499153952235,0.483555391228,0.483555391228,0.467956830221,0.467956830221,0.452358269213,0.436759708206,0.436759708206,0.421161147199,0.421161147199,0.405562586191,0.405562586191,0.389964025184,0.389964025184,0.374365464176,0.374365464176,0.358766903169,0.358766903169,0.343168342162,0.343168342162,0.327569781154,0.311971220147,0.311971220147,0.29637265914,0.29637265914,0.280774098132,0.280774098132,0.265175537125,0.265175537125,0.249576976118,0.249576976118,0.23397841511,0.23397841511,0.218379854103,0.218379854103,0.202781293096,0.202781293096,0.187182732088,0.187182732088,0.171584171081,0.171584171081,0.155985610074,0.155985610074,0.140387049066,0.140387049066,0.124788488059,0.124788488059,0.109189927051,0.109189927051,0.0935913660441,0.0935913660441,0.0779928050368,0.0779928050368,0.0623942440294,0.0623942440294,0.0467956830221,0.0467956830221,0.0311971220147,0.0311971220147,0.0155985610074,0.0155985610074,0.0,0.0,-0.0155985610074,-0.0155985610074,-0.0311971220147,-0.0311971220147,-0.0467956830221,-0.0467956830221,-0.0623942440294,-0.0623942440294,-0.0779928050368,-0.0779928050368,-0.0779928050368,-0.0935913660441,-0.0935913660441,-0.109189927051,-0.109189927051,-0.124788488059,-0.124788488059,-0.124788488059,-0.140387049066,-0.140387049066,-0.155985610074,-0.155985610074,-0.171584171081,-0.171584171081,-0.187182732088,-0.187182732088,-0.202781293096,-0.202781293096,-0.218379854103,-0.218379854103,-0.218379854103,-0.23397841511,-0.23397841511,-0.249576976118,-0.249576976118,-0.265175537125,-0.265175537125,-0.265175537125,-0.280774098132,-0.280774098132,-0.29637265914,-0.29637265914,-0.311971220147,-0.311971220147,-0.311971220147,-0.327569781154,-0.327569781154,-0.343168342162,-0.343168342162,-0.343168342162,-0.358766903169,-0.358766903169,-0.374365464176,-0.374365464176,-0.374365464176,-0.389964025184,-0.389964025184,-0.389964025184,-0.405562586191,-0.405562586191,-0.421161147199,-0.421161147199,-0.421161147199,-0.436759708206,-0.436759708206,-0.452358269213,-0.452358269213,-0.467956830221,-0.467956830221,-0.483555391228,-0.483555391228,-0.483555391228,-0.499153952235,-0.499153952235,-0.514752513243,-0.514752513243,-0.514752513243,-0.53035107425,-0.53035107425,-0.53035107425,-0.545949635257,-0.545949635257,-0.561548196265,-0.561548196265,-0.577146757272,-0.577146757272,-0.577146757272,-0.592745318279,-0.592745318279,-0.608343879287,-0.608343879287,-0.608343879287,-0.623942440294,-0.623942440294,-0.623942440294,-0.639541001302,-0.639541001302,-0.655139562309,-0.655139562309,-0.655139562309,-0.670738123316,-0.670738123316,-0.686336684324,-0.686336684324,-0.686336684324,-0.701935245331,-0.701935245331,-0.701935245331,-0.717533806338,-0.717533806338,-0.733132367346,-0.733132367346,-0.733132367346,-0.748730928353,-0.748730928353,-0.748730928353,-0.76432948936,-0.76432948936,-0.76432948936,-0.779928050368,-0.779928050368,-0.795526611375,-0.795526611375,-0.795526611375,-0.811125172382,-0.811125172382,-0.811125172382,-0.82672373339,-0.82672373339,-0.82672373339,-0.842322294397,-0.842322294397,-0.842322294397,-0.857920855404,-0.857920855404,-0.857920855404,-0.873519416412,-0.873519416412,-0.889117977419,-0.889117977419,-0.889117977419,-0.904716538427,-0.904716538427,-0.904716538427,-0.920315099434,-0.920315099434,-0.920315099434,-0.935913660441,-0.935913660441,-0.935913660441,-0.951512221449,-0.951512221449,-0.951512221449,-0.967110782456,-0.967110782456,-0.967110782456,-0.982709343463,-0.982709343463,-0.982709343463,-0.998307904471,-0.998307904471,-0.998307904471,-1.01390646548,-1.01390646548,-1.01390646548,-1.02950502649,-1.02950502649,-1.04510358749,-1.04510358749,-1.04510358749,-1.0607021485,-1.0607021485,-1.0607021485,-1.07630070951,-1.07630070951,-1.07630070951,-1.07630070951,-1.09189927051,-1.09189927051,-1.09189927051,-1.10749783152,-1.10749783152,-1.12309639253,-1.12309639253,-1.12309639253,-1.13869495354,-1.13869495354,-1.13869495354,-1.13869495354,-1.15429351454,-1.15429351454,-1.15429351454,-1.16989207555,-1.16989207555,-1.16989207555,-1.16989207555,-1.18549063656,-1.18549063656,-1.20108919757,-1.20108919757,-1.21668775857,-1.21668775857,-1.21668775857,-1.21668775857,-1.23228631958,-1.23228631958,-1.23228631958,-1.24788488059,-1.24788488059,-1.24788488059,-1.2634834416,-1.2634834416,-1.2634834416,-1.2634834416,-1.2790820026,-1.2790820026,-1.2790820026,-1.29468056361,-1.29468056361,-1.29468056361,-1.29468056361,-1.29468056361,-1.29468056361,-1.29468056361,-1.29468056361,-1.29468056361,-1.29468056361,-1.29468056361,-1.29468056361,-1.29468056361,0.0,0.0,0.0,0.0,0.0,0.0,0.0,0.0,0.0,0.0,0.0,0.0,0.0,0.0,0.0,0.0,0.0,0.0,0.0,0.0,0.0,0.0,0.0,0.0,0.0,0.0,0.0,0.0,0.0,0.0,0.0,0.0,0.0,0.0
0.0,0.0,0.0,0.0,0.0,0.0,0.0,0.0,0.0,0.0,0.0,0.0,0.0,0.0,0.0,0.0,0.0,0.0,0.0,0.0,0.0,0.0,0.0,0.0,0.0,0.0,0.0,0.0,0.0,0.0,1.43506761268,1.43506761268,1.43506761268,1.41946905167,1.41946905167,1.41946905167,1.41946905167,1.41946905167,1.41946905167,1.38827192965,1.35707480764,1.35707480764,1.34147624663,1.32587768563,1.31027912462,1.2790820026,1.2634834416,1.24788488059,1.23228631958,1.21668775857,1.20108919757,1.18549063656,1.18549063656,1.16989207555,1.16989207555,1.15429351454,1.15429351454,1.13869495354,1.12309639253,1.12309639253,1.10749783152,1.10749783152,1.09189927051,1.07630070951,1.0607021485,1.04510358749,1.04510358749,1.02950502649,1.01390646548,0.998307904471,0.998307904471,0.982709343463,0.967110782456,0.967110782456,0.951512221449,0.935913660441,0.935913660441,0.920315099434,0.904716538427,0.904716538427,0.889117977419,0.889117977419,0.873519416412,0.873519416412,0.857920855404,0.857920855404,0.842322294397,0.82672373339,0.811125172382,0.795526611375,0.795526611375,0.779928050368,0.76432948936,0.76432948936,0.748730928353,0.733132367346,0.733132367346,0.717533806338,0.701935245331,0.701935245331,0.686336684324,0.686336684324,0.670738123316,0.655139562309,0.655139562309,0.639541001302,0.623942440294,0.608343879287,0.608343879287,0.592745318279,0.592745318279,0.577146757272,0.577146757272,0.561548196265,0.561548196265,0.545949635257,0.545949635257,0.53035107425,0.514752513243,0.514752513243,0.499153952235,0.483555391228,0.483555391228,0.467956830221,0.467956830221,0.452358269213,0.452358269213,0.436759708206,0.436759708206,0.421161147199,0.421161147199,0.405562586191,0.405562586191,0.389964025184,0.389964025184,0.374365464176,0.374365464176,0.358766903169,0.343168342162,0.343168342162,0.327569781154,0.327569781154,0.311971220147,0.29637265914,0.29637265914,0.280774098132,0.280774098132,0.280774098132,0.265175537125,0.249576976118,0.249576976118,0.23397841511,0.23397841511,0.218379854103,0.218379854103,0.202781293096,0.202781293096,0.187182732088,0.187182732088,0.171584171081,0.171584171081,0.155985610074,0.155985610074,0.140387049066,0.140387049066,0.124788488059,0.124788488059,0.109189927051,0.109189927051,0.0935913660441,0.0935913660441,0.0779928050368,0.0779928050368,0.0623942440294,0.0623942440294,0.0467956830221,0.0467956830221,0.0311971220147,0.0311971220147,0.0155985610074,0.0155985610074,0.0,0.0,-0.0155985610074,-0.0155985610074,-0.0311971220147,-0.0311971220147,-0.0467956830221,-0.0467956830221,-0.0467956830221,-0.0623942440294,-0.0623942440294,-0.0779928050368,-0.0779928050368,-0.0935913660441,-0.0935913660441,-0.109189927051,-0.109189927051,-0.109189927051,-0.124788488059,-0.124788488059,-0.140387049066,-0.140387049066,-0.155985610074,-0.155985610074,-0.171584171081,-0.171584171081,-0.187182732088,-0.187182732088,-0.187182732088,-0.202781293096,-0.202781293096,-0.218379854103,-0.218379854103,-0.23397841511,-0.23397841511,-0.249576976118,-0.249576976118,-0.249576976118,-0.265175537125,-0.265175537125,-0.280774098132,-0.280774098132,-0.29637265914,-0.29637265914,-0.29637265914,-0.311971220147,-0.311971220147,-0.327569781154,-0.327569781154,-0.327569781154,-0.343168342162,-0.343168342162,-0.358766903169,-0.358766903169,-0.374365464176,-0.374365464176,-0.374365464176,-0.389964025184,-0.389964025184,-0.389964025184,-0.405562586191,-0.405562586191,-0.405562586191,-0.421161147199,-0.421161147199,-0.436759708206,-0.436759708206,-0.452358269213,-0.452358269213,-0.467956830221,-0.467956830221,-0.467956830221,-0.483555391228,-0.483555391228,-0.499153952235,-0.499153952235,-0.514752513243,-0.514752513243,-0.514752513243,-0.53035107425,-0.53035107425,-0.53035107425,-0.545949635257,-0.545949635257,-0.561548196265,-0.561548196265,-0.577146757272,-0.577146757272,-0.577146757272,-0.592745318279,-0.592745318279,-0.592745318279,-0.608343879287,-0.608343879287,-0.623942440294,-0.623942440294,-0.623942440294,-0.639541001302,-0.639541001302,-0.639541001302,-0.655139562309,-0.655139562309,-0.670738123316,-0.670738123316,-0.686336684324,-0.686336684324,-0.686336684324,-0.686336684324,-0.701935245331,-0.701935245331,-0.717533806338,-0.717533806338,-0.717533806338,-0.733132367346,-0.733132367346,-0.733132367346,-0.748730928353,-0.748730928353,-0.748730928353,-0.76432948936,-0.76432948936,-0.779928050368,-0.779928050368,-0.779928050368,-0.795526611375,-0.795526611375,-0.811125172382,-0.811125172382,-0.811125172382,-0.82672373339,-0.82672373339,-0.82672373339,-0.842322294397,-0.842322294397,-0.842322294397,-0.857920855404,-0.857920855404,-0.857920855404,-0.873519416412,-0.873519416412,-0.873519416412,-0.889117977419,-0.889117977419,-0.904716538427,-0.904716538427,-0.904716538427,-0.920315099434,-0.920315099434,-0.920315099434,-0.920315099434,-0.935913660441,-0.935913660441,-0.951512221449,-0.951512221449,-0.951512221449,-0.967110782456,-0.967110782456,-0.967110782456,-0.982709343463,-0.982709343463,-0.982709343463,-0.998307904471,-0.998307904471,-0.998307904471,-1.01390646548,-1.01390646548,-1.01390646548,-1.02950502649,-1.02950502649,-1.04510358749,-1.04510358749,-1.04510358749,-1.0607021485,-1.0607021485,-1.0607021485,-1.0607021485,-1.07630070951,-1.07630070951,-1.07630070951,-1.09189927051,-1.09189927051,-1.09189927051,-1.10749783152,-1.10749783152,-1.12309639253,-1.12309639253,-1.12309639253,-1.13869495354,-1.13869495354,-1.13869495354,-1.13869495354,-1.15429351454,-1.15429351454,-1.15429351454,-1.15429351454,-1.16989207555,-1.16989207555,-1.16989207555,-1.18549063656,-1.18549063656,-1.20108919757,-1.20108919757,-1.21668775857,-1.21668775857,-1.21668775857,-1.21668775857,-1.23228631958,-1.23228631958,-1.23228631958,-1.24788488059,-1.24788488059,-1.24788488059,-1.24788488059,-1.2634834416,-1.2634834416,-1.2634834416,-1.2790820026,-1.2790820026,-1.2790820026,-1.29468056361,-1.29468056361,-1.29468056361,-1.29468056361,-1.29468056361,-1.29468056361,-1.29468056361,-1.29468056361,-1.29468056361,-1.29468056361,-1.29468056361,-1.29468056361,-1.29468056361,0.0,0.0,0.0,0.0,0.0,0.0,0.0,0.0,0.0,0.0,0.0,0.0,0.0,0.0,0.0,0.0,0.0,0.0,0.0,0.0,0.0,0.0,0.0,0.0,0.0,0.0,0.0,0.0,0.0,0.0,0.0,0.0,0.0,0.0
0.0,0.0,0.0,0.0,0.0,0.0,0.0,0.0,0.0,0.0,0.0,0.0,0.0,0.0,0.0,0.0,0.0,0.0,0.0,0.0,0.0,0.0,0.0,0.0,0.0,0.0,0.0,0.0,1.46626473469,1.45066617368,1.43506761268,1.43506761268,1.41946905167,1.41946905167,1.41946905167,1.41946905167,1.41946905167,1.40387049066,1.38827192965,1.38827192965,1.35707480764,1.35707480764,1.34147624663,1.32587768563,1.31027912462,1.29468056361,1.2634834416,1.24788488059,1.23228631958,1.21668775857,1.20108919757,1.20108919757,1.18549063656,1.16989207555,1.16989207555,1.15429351454,1.15429351454,1.13869495354,1.12309639253,1.12309639253,1.10749783152,1.10749783152,1.09189927051,1.07630070951,1.07630070951,1.0607021485,1.04510358749,1.02950502649,1.01390646548,0.998307904471,0.998307904471,0.982709343463,0.982709343463,0.967110782456,0.951512221449,0.951512221449,0.935913660441,0.920315099434,0.904716538427,0.904716538427,0.889117977419,0.889117977419,0.873519416412,0.873519416412,0.857920855404,0.857920855404,0.842322294397,0.842322294397,0.82672373339,0.811125172382,0.795526611375,0.779928050368,0.76432948936,0.76432948936,0.748730928353,0.733132367346,0.733132367346,0.717533806338,0.701935245331,0.701935245331,0.686336684324,0.686336684324,0.670738123316,0.655139562309,0.655139562309,0.639541001302,0.623942440294,0.608343879287,0.608343879287,0.592745318279,0.592745318279,0.577146757272,0.577146757272,0.561548196265,0.561548196265,0.545949635257,0.545949635257,0.53035107425,0.53035107425,0.514752513243,0.499153952235,0.499153952235,0.483555391228,0.467956830221,0.467956830221,0.452358269213,0.452358269213,0.436759708206,0.436759708206,0.421161147199,0.421161147199,0.405562586191,0.405562586191,0.389964025184,0.389964025184,0.374365464176,0.374365464176,0.358766903169,0.343168342162,0.343168342162,0.327569781154,0.327569781154,0.311971220147,0.311971220147,0.29637265914,0.29637265914,0.280774098132,0.280774098132,0.265175537125,0.249576976118,0.249576976118,0.23397841511,0.23397841511,0.218379854103,0.218379854103,0.202781293096,0.202781293096,0.202781293096,0.187182732088,0.187182732088,0.171584171081,0.155985610074,0.155985610074,0.140387049066,0.140387049066,0.124788488059,0.124788488059,0.109189927051,0.109189927051,0.0935913660441,0.0935913660441,0.0779928050368,0.0779928050368,0.0623942440294,0.0623942440294,0.0467956830221,0.0467956830221,0.0311971220147,0.0311971220147,0.0155985610074,0.0155985610074,0.0,0.0,-0.0155985610074,-0.0155985610074,-0.0311971220147,-0.0311971220147,-0.0311971220147,-0.0467956830221,-0.0467956830221,-0.0623942440294,-0.0623942440294,-0.0779928050368,-0.0779928050368,-0.0935913660441,-0.0935913660441,-0.109189927051,-0.109189927051,-0.109189927051,-0.124788488059,-0.124788488059,-0.140387049066,-0.140387049066,-0.155985610074,-0.155985610074,-0.171584171081,-0.171584171081,-0.171584171081,-0.187182732088,-0.187182732088,-0.202781293096,-0.202781293096,-0.218379854103,-0.218379854103,-0.23397841511,-0.23397841511,-0.249576976118,-0.249576976118,-0.249576976118,-0.265175537125,-0.265175537125,-0.280774098132,-0.280774098132,-0.280774098132,-0.29637265914,-0.29637265914,-0.311971220147,-0.311971220147,-0.327569781154,-0.327569781154,-0.327569781154,-0.343168342162,-0.343168342162,-0.358766903169,-0.358766903169,-0.358766903169,-0.374365464176,-0.374365464176,-0.389964025184,-0.389964025184,-0.389964025184,-0.405562586191,-0.405562586191,-0.405562586191,-0.421161147199,-0.421161147199,-0.436759708206,-0.436759708206,-0.452358269213,-0.452358269213,-0.467956830221,-0.467956830221,-0.467956830221,-0.483555391228,-0.483555391228,-0.499153952235,-0.499153952235,-0.499153952235,-0.514752513243,-0.514752513243,-0.53035107425,-0.53035107425,-0.53035107425,-0.545949635257,-0.545949635257,-0.561548196265,-0.561548196265,-0.561548196265,-0.577146757272,-0.577146757272,-0.592745318279,-0.592745318279,-0.592745318279,-0.608343879287,-0.608343879287,-0.608343879287,-0.623942440294,-0.623942440294,-0.639541001302,-0.639541001302,-0.639541001302,-0.655139562309,-0.655139562309,-0.670738123316,-0.670738123316,-0.670738123316,-0.686336684324,-0.686336684324,-0.686336684324,-0.701935245331,-0.701935245331,-0.717533806338,-0.717533806338,-0.717533806338,-0.733132367346,-0.733132367346,-0.733132367346,-0.748730928353,-0.748730928353,-0.748730928353,-0.76432948936,-0.76432948936,-0.779928050368,-0.779928050368,-0.779928050368,-0.795526611375,-0.795526611375,-0.811125172382,-0.811125172382,-0.811125172382,-0.82672373339,-0.82672373339,-0.82672373339,-0.842322294397,-0.842322294397,-0.842322294397,-0.857920855404,-0.857920855404,-0.857920855404,-0.873519416412,-0.873519416412,-0.873519416412,-0.889117977419,-0.889117977419,-0.904716538427,-0.904716538427,-0.904716538427,-0.904716538427,-0.920315099434,-0.920315099434,-0.920315099434,-0.935913660441,-0.935913660441,-0.951512221449,-0.951512221449,-0.951512221449,-0.967110782456,-0.967110782456,-0.967110782456,-0.982709343463,-0.982709343463,-0.982709343463,-0.998307904471,-0.998307904471,-0.998307904471,-1.01390646548,-1.01390646548,-1.01390646548,-1.02950502649,-1.02950502649,-1.04510358749,-1.04510358749,-1.04510358749,-1.04510358749,-1.0607021485,-1.0607021485,-1.0607021485,-1.07630070951,-1.07630070951,-1.07630070951,-1.09189927051,-1.09189927051,-1.09189927051,-1.10749783152,-1.10749783152,-1.10749783152,-1.12309639253,-1.12309639253,-1.13869495354,-1.13869495354,-1.13869495354,-1.13869495354,-1.15429351454,-1.15429351454,-1.15429351454,-1.15429351454,-1.16989207555,-1.16989207555,-1.16989207555,-1.18549063656,-1.18549063656,-1.20108919757,-1.20108919757,-1.21668775857,-1.21668775857,-1.21668775857,-1.21668775857,-1.23228631958,-1.23228631958,-1.23228631958,-1.24788488059,-1.24788488059,-1.24788488059,-1.24788488059,-1.2634834416,-1.2634834416,-1.2634834416,-1.2790820026,-1.2790820026,-1.2790820026,-1.29468056361,-1.29468056361,-1.29468056361,-1.29468056361,-1.29468056361,-1.29468056361,-1.29468056361,-1.29468056361,-1.29468056361,-1.29468056361,-1.29468056361,-1.29468056361,-1.29468056361,0.0,0.0,0.0,0.0,0.0,0.0,0.0,0.0,0.0,0.0,0.0,0.0,0.0,0.0,0.0,0.0,0.0,0.0,0.0,0.0,0.0,0.0,0.0,0.0,0.0,0.0,0.0,0.0,0.0,0.0,0.0,0.0,0.0,0.0
0.0,0.0,0.0,0.0,0.0,0.0,0.0,0.0,0.0,0.0,0.0,0.0,0.0,0.0,0.0,0.0,0.0,0.0,0.0,0.0,0.0,0.0,0.0,0.0,1.52865897872,1.52865897872,1.51306041771,1.4818632957,1.46626473469,1.45066617368,1.43506761268,1.43506761268,1.41946905167,1.41946905167,1.41946905167,1.41946905167,1.40387049066,1.40387049066,1.38827192965,1.37267336865,1.35707480764,1.35707480764,1.34147624663,1.32587768563,1.31027912462,1.29468056361,1.2790820026,1.2634834416,1.23228631958,1.21668775857,1.21668775857,1.20108919757,1.18549063656,1.18549063656,1.16989207555,1.16989207555,1.15429351454,1.13869495354,1.13869495354,1.12309639253,1.10749783152,1.10749783152,1.09189927051,1.07630070951,1.07630070951,1.0607021485,1.04510358749,1.02950502649,1.01390646548,1.01390646548,0.998307904471,0.982709343463,0.982709343463,0.967110782456,0.967110782456,0.951512221449,0.935913660441,0.920315099434,0.920315099434,0.904716538427,0.904716538427,0.889117977419,0.889117977419,0.873519416412,0.873519416412,0.873519416412,0.873519416412,0.857920855404,0.842322294397,0.842322294397,0.795526611375,0.779928050368,0.76432948936,0.76432948936,0.748730928353,0.733132367346,0.733132367346,0.717533806338,0.717533806338,0.701935245331,0.686336684324,0.686336684324,0.670738123316,0.655139562309,0.655139562309,0.639541001302,0.623942440294,0.623942440294,0.608343879287,0.592745318279,0.592745318279,0.592745318279,0.577146757272,0.577146757272,0.561548196265,0.561548196265,0.545949635257,0.53035107425,0.53035107425,0.514752513243,0.499153952235,0.499153952235,0.483555391228,0.467956830221,0.467956830221,0.452358269213,0.452358269213,0.436759708206,0.436759708206,0.421161147199,0.421161147199,0.405562586191,0.405562586191,0.389964025184,0.389964025184,0.374365464176,0.374365464176,0.358766903169,0.343168342162,0.343168342162,0.327569781154,0.327569781154,0.311971220147,0.311971220147,0.29637265914,0.29637265914,0.280774098132,0.280774098132,0.265175537125,0.265175537125,0.249576976118,0.23397841511,0.23397841511,0.218379854103,0.218379854103,0.218379854103,0.202781293096,0.202781293096,0.187182732088,0.187182732088,0.171584171081,0.171584171081,0.155985610074,0.140387049066,0.140387049066,0.124788488059,0.124788488059,0.109189927051,0.109189927051,0.0935913660441,0.0935913660441,0.0779928050368,0.0779928050368,0.0623942440294,0.0623942440294,0.0467956830221,0.0467956830221,0.0311971220147,0.0311971220147,0.0311971220147,0.0155985610074,0.0,0.0,-0.0155985610074,-0.0155985610074,-0.0311971220147,-0.0311971220147,-0.0311971220147,-0.0467956830221,-0.0467956830221,-0.0623942440294,-0.0623942440294,-0.0779928050368,-0.0779928050368,-0.0935913660441,-0.0935913660441,-0.109189927051,-0.109189927051,-0.109189927051,-0.124788488059,-0.124788488059,-0.140387049066,-0.140387049066,-0.155985610074,-0.155985610074,-0.155985610074,-0.171584171081,-0.171584171081,-0.187182732088,-0.187182732088,-0.202781293096,-0.202781293096,-0.218379854103,-0.218379854103,-0.23397841511,-0.23397841511,-0.23397841511,-0.249576976118,-0.249576976118,-0.265175537125,-0.265175537125,-0.265175537125,-0.280774098132,-0.280774098132,-0.29637265914,-0.29637265914,-0.311971220147,-0.311971220147,-0.311971220147,-0.327569781154,-0.327569781154,-0.343168342162,-0.343168342162,-0.358766903169,-0.358766903169,-0.358766903169,-0.374365464176,-0.374365464176,-0.374365464176,-0.389964025184,-0.389964025184,-0.405562586191,-0.405562586191,-0.405562586191,-0.421161147199,-0.421161147199,-0.436759708206,-0.436759708206,-0.452358269213,-0.452358269213,-0.452358269213,-0.467956830221,-0.467956830221,-0.483555391228,-0.483555391228,-0.483555391228,-0.499153952235,-0.499153952235,-0.514752513243,-0.514752513243,-0.53035107425,-0.53035107425,-0.53035107425,-0.545949635257,-0.545949635257,-0.561548196265,-0.561548196265,-0.561548196265,-0.577146757272,-0.577146757272,-0.592745318279,-0.592745318279,-0.592745318279,-0.608343879287,-0.608343879287,-0.608343879287,-0.623942440294,-0.623942440294,-0.623942440294,-0.639541001302,-0.639541001302,-0.655139562309,-0.655139562309,-0.670738123316,-0.670738123316,-0.670738123316,-0.686336684324,-0.686336684324,-0.686336684324,-0.701935245331,-0.701935245331,-0.701935245331,-0.717533806338,-0.717533806338,-0.733132367346,-0.733132367346,-0.733132367346,-0.748730928353,-0.748730928353,-0.748730928353,-0.76432948936,-0.76432948936,-0.779928050368,-0.779928050368,-0.779928050368,-0.795526611375,-0.795526611375,-0.795526611375,-0.811125172382,-0.811125172382,-0.82672373339,-0.82672373339,-0.82672373339,-0.842322294397,-0.842322294397,-0.842322294397,-0.842322294397,-0.857920855404,-0.857920855404,-0.857920855404,-0.873519416412,-0.873519416412,-0.889117977419,-0.889117977419,-0.904716538427,-0.904716538427,-0.904716538427,-0.904716538427,-0.920315099434,-0.920315099434,-0.920315099434,-0.935913660441,-0.935913660441,-0.951512221449,-0.951512221449,-0.951512221449,-0.967110782456,-0.967110782456,-0.967110782456,-0.982709343463,-0.982709343463,-0.982709343463,-0.998307904471,-0.998307904471,-0.998307904471,-1.01390646548,-1.01390646548,-1.01390646548,-1.02950502649,-1.02950502649,-1.02950502649,-1.04510358749,-1.04510358749,-1.04510358749,-1.0607021485,-1.0607021485,-1.0607021485,-1.07630070951,-1.07630070951,-1.07630070951,-1.09189927051,-1.09189927051,-1.09189927051,-1.10749783152,-1.10749783152,-1.10749783152,-1.12309639253,-1.12309639253,-1.13869495354,-1.13869495354,-1.13869495354,-1.13869495354,-1.15429351454,-1.15429351454,-1.15429351454,-1.15429351454,-1.16989207555,-1.16989207555,-1.16989207555,-1.18549063656,-1.18549063656,-1.20108919757,-1.20108919757,-1.21668775857,-1.21668775857,-1.21668775857,-1.21668775857,-1.23228631958,-1.23228631958,-1.23228631958,-1.24788488059,-1.24788488059,-1.24788488059,-1.24788488059,-1.2634834416,-1.2634834416,-1.2634834416,-1.2790820026,-1.2790820026,-1.2790820026,-1.29468056361,-1.29468056361,-1.29468056361,-1.29468056361,-1.29468056361,-1.29468056361,-1.29468056361,-1.29468056361,-1.29468056361,-1.29468056361,-1.29468056361,-1.29468056361,-1.29468056361,0.0,0.0,0.0,0.0,0.0,0.0,0.0,0.0,0.0,0.0,0.0,0.0,0.0,0.0,0.0,0.0,0.0,0.0,0.0,0.0,0.0,0.0,0.0,0.0,0.0,0.0,0.0,0.0,0.0,0.0,0.0,0.0,0.0,0.0
0.0,0.0,0.0,0.0,0.0,0.0,0.0,0.0,0.0,0.0,0.0,0.0,0.0,0.0,0.0,0.0,0.0,0.0,1.62225034476,1.60665178376,1.59105322275,1.57545466174,1.55985610074,1.54425753973,1.54425753973,1.52865897872,1.51306041771,1.4818632957,1.46626473469,1.45066617368,1.45066617368,1.43506761268,1.41946905167,1.41946905167,1.41946905167,1.40387049066,1.40387049066,1.40387049066,1.38827192965,1.37267336865,1.35707480764,1.35707480764,1.34147624663,1.32587768563,1.31027912462,1.29468056361,1.2790820026,1.2634834416,1.24788488059,1.23228631958,1.21668775857,1.20108919757,1.20108919757,1.18549063656,1.16989207555,1.16989207555,1.15429351454,1.13869495354,1.13869495354,1.12309639253,1.12309639253,1.10749783152,1.09189927051,1.09189927051,1.07630070951,1.0607021485,1.04510358749,1.02950502649,1.01390646548,1.01390646548,0.998307904471,0.982709343463,0.982709343463,0.967110782456,0.967110782456,0.951512221449,0.935913660441,0.920315099434,0.920315099434,0.904716538427,0.904716538427,0.889117977419,0.889117977419,0.873519416412,0.873519416412,0.873519416412,0.873519416412,0.889117977419,0.857920855404,0.857920855404,0.795526611375,0.779928050368,0.76432948936,0.76432948936,0.748730928353,0.748730928353,0.733132367346,0.717533806338,0.717533806338,0.701935245331,0.701935245331,0.686336684324,0.670738123316,0.655139562309,0.655139562309,0.639541001302,0.623942440294,0.623942440294,0.608343879287,0.608343879287,0.592745318279,0.592745318279,0.577146757272,0.577146757272,0.561548196265,0.561548196265,0.545949635257,0.53035107425,0.53035107425,0.514752513243,0.514752513243,0.499153952235,0.483555391228,0.467956830221,0.467956830221,0.452358269213,0.452358269213,0.436759708206,0.436759708206,0.436759708206,0.421161147199,0.421161147199,0.405562586191,0.405562586191,0.389964025184,0.374365464176,0.374365464176,0.358766903169,0.358766903169,0.343168342162,0.327569781154,0.327569781154,0.311971220147,0.311971220147,0.29637265914,0.29637265914,0.280774098132,0.280774098132,0.265175537125,0.265175537125,0.249576976118,0.249576976118,0.23397841511,0.23397841511,0.218379854103,0.218379854103,0.202781293096,0.202781293096,0.187182732088,0.187182732088,0.171584171081,0.171584171081,0.155985610074,0.155985610074,0.140387049066,0.124788488059,0.124788488059,0.109189927051,0.109189927051,0.0935913660441,0.0935913660441,0.0779928050368,0.0779928050368,0.0779928050368,0.0623942440294,0.0623942440294,0.0467956830221,0.0467956830221,0.0311971220147,0.0311971220147,0.0155985610074,0.0155985610074,0.0,0.0,-0.0155985610074,-0.0155985610074,-0.0311971220147,-0.0311971220147,-0.0467956830221,-0.0467956830221,-0.0623942440294,-0.0623942440294,-0.0779928050368,-0.0779928050368,-0.0935913660441,-0.0935913660441,-0.109189927051,-0.109189927051,-0.109189927051,-0.124788488059,-0.124788488059,-0.140387049066,-0.140387049066,-0.155985610074,-0.155985610074,-0.155985610074,-0.171584171081,-0.171584171081,-0.187182732088,-0.187182732088,-0.202781293096,-0.202781293096,-0.218379854103,-0.218379854103,-0.23397841511,-0.23397841511,-0.23397841511,-0.249576976118,-0.249576976118,-0.265175537125,-0.265175537125,-0.265175537125,-0.280774098132,-0.280774098132,-0.29637265914,-0.29637265914,-0.311971220147,-0.311971220147,-0.311971220147,-0.327569781154,-0.327569781154,-0.343168342162,-0.343168342162,-0.343168342162,-0.358766903169,-0.358766903169,-0.374365464176,-0.374365464176,-0.374365464176,-0.389964025184,-0.389964025184,-0.405562586191,-0.405562586191,-0.405562586191,-0.421161147199,-0.421161147199,-0.436759708206,-0.436759708206,-0.452358269213,-0.452358269213,-0.452358269213,-0.467956830221,-0.467956830221,-0.483555391228,-0.483555391228,-0.483555391228,-0.499153952235,-0.499153952235,-0.514752513243,-0.514752513243,-0.514752513243,-0.53035107425,-0.53035107425,-0.545949635257,-0.545949635257,-0.561548196265,-0.561548196265,-0.561548196265,-0.577146757272,-0.577146757272,-0.592745318279,-0.592745318279,-0.592745318279,-0.608343879287,-0.608343879287,-0.608343879287,-0.623942440294,-0.623942440294,-0.623942440294,-0.639541001302,-0.639541001302,-0.655139562309,-0.655139562309,-0.670738123316,-0.670738123316,-0.670738123316,-0.686336684324,-0.686336684324,-0.686336684324,-0.701935245331,-0.701935245331,-0.701935245331,-0.717533806338,-0.717533806338,-0.733132367346,-0.733132367346,-0.733132367346,-0.748730928353,-0.748730928353,-0.748730928353,-0.76432948936,-0.76432948936,-0.779928050368,-0.779928050368,-0.779928050368,-0.795526611375,-0.795526611375,-0.795526611375,-0.811125172382,-0.811125172382,-0.811125172382,-0.82672373339,-0.82672373339,-0.842322294397,-0.842322294397,-0.842322294397,-0.842322294397,-0.857920855404,-0.857920855404,-0.857920855404,-0.873519416412,-0.873519416412,-0.889117977419,-0.889117977419,-0.889117977419,-0.904716538427,-0.904716538427,-0.904716538427,-0.920315099434,-0.920315099434,-0.920315099434,-0.935913660441,-0.935913660441,-0.951512221449,-0.951512221449,-0.951512221449,-0.951512221449,-0.967110782456,-0.967110782456,-0.967110782456,-0.982709343463,-0.982709343463,-0.998307904471,-0.998307904471,-0.998307904471,-1.01390646548,-1.01390646548,-1.01390646548,-1.02950502649,-1.02950502649,-1.02950502649,-1.04510358749,-1.04510358749,-1.04510358749,-1.0607021485,-1.0607021485,-1.0607021485,-1.07630070951,-1.07630070951,-1.07630070951,-1.09189927051,-1.09189927051,-1.09189927051,-1.10749783152,-1.10749783152,-1.10749783152,-1.12309639253,-1.12309639253,-1.12309639253,-1.13869495354,-1.13869495354,-1.13869495354,-1.15429351454,-1.15429351454,-1.15429351454,-1.15429351454,-1.16989207555,-1.16989207555,-1.16989207555,-1.18549063656,-1.18549063656,-1.20108919757,-1.20108919757,-1.20108919757,-1.21668775857,-1.21668775857,-1.21668775857,-1.23228631958,-1.23228631958,-1.23228631958,-1.23228631958,-1.24788488059,-1.24788488059,-1.24788488059,-1.2634834416,-1.2634834416,-1.2634834416,-1.2790820026,-1.2790820026,-1.2790820026,-1.29468056361,-1.29468056361,-1.29468056361,-1.29468056361,-1.29468056361,-1.29468056361,-1.29468056361,-1.29468056361,-1.29468056361,-1.29468056361,-1.29468056361,-1.29468056361,-1.29468056361,0.0,0.0,0.0,0.0,0.0,0.0,0.0,0.0,0.0,0.0,0.0,0.0,0.0,0.0,0.0,0.0,0.0,0.0,0.0,0.0,0.0,0.0,0.0,0.0,0.0,0.0,0.0,0.0,0.0,0.0,0.0,0.0,0.0,0.0
0.0,0.0,0.0,0.0,0.0,0.0,0.0,0.0,0.0,0.0,0.0,0.0,1.7002431498,1.68464458879,1.68464458879,1.66904602779,1.66904602779,1.65344746678,1.63784890577,1.62225034476,1.59105322275,1.57545466174,1.55985610074,1.54425753973,1.54425753973,1.52865897872,1.51306041771,1.49746185671,1.4818632957,1.46626473469,1.45066617368,1.43506761268,1.43506761268,1.41946905167,1.41946905167,1.40387049066,1.40387049066,1.38827192965,1.38827192965,1.37267336865,1.35707480764,1.35707480764,1.34147624663,1.32587768563,1.31027912462,1.29468056361,1.2790820026,1.2634834416,1.24788488059,1.23228631958,1.21668775857,1.20108919757,1.20108919757,1.18549063656,1.18549063656,1.16989207555,1.15429351454,1.15429351454,1.13869495354,1.12309639253,1.12309639253,1.10749783152,1.09189927051,1.09189927051,1.07630070951,1.0607021485,1.04510358749,1.02950502649,1.01390646548,1.01390646548,0.998307904471,0.998307904471,0.982709343463,0.967110782456,0.967110782456,0.951512221449,0.935913660441,0.935913660441,0.920315099434,0.904716538427,0.904716538427,0.889117977419,0.889117977419,0.873519416412,0.873519416412,0.873519416412,0.889117977419,0.889117977419,0.904716538427,0.857920855404,0.795526611375,0.779928050368,0.76432948936,0.76432948936,0.748730928353,0.748730928353,0.733132367346,0.733132367346,0.717533806338,0.701935245331,0.701935245331,0.686336684324,0.670738123316,0.670738123316,0.655139562309,0.639541001302,0.639541001302,0.623942440294,0.608343879287,0.608343879287,0.592745318279,0.592745318279,0.577146757272,0.577146757272,0.561548196265,0.561548196265,0.545949635257,0.545949635257,0.53035107425,0.514752513243,0.514752513243,0.499153952235,0.483555391228,0.483555391228,0.467956830221,0.467956830221,0.452358269213,0.452358269213,0.436759708206,0.436759708206,0.421161147199,0.421161147199,0.405562586191,0.405562586191,0.389964025184,0.374365464176,0.374365464176,0.358766903169,0.358766903169,0.343168342162,0.343168342162,0.327569781154,0.311971220147,0.311971220147,0.29637265914,0.29637265914,0.280774098132,0.280774098132,0.265175537125,0.265175537125,0.249576976118,0.249576976118,0.23397841511,0.23397841511,0.218379854103,0.218379854103,0.202781293096,0.202781293096,0.187182732088,0.187182732088,0.171584171081,0.171584171081,0.155985610074,0.155985610074,0.140387049066,0.124788488059,0.124788488059,0.109189927051,0.109189927051,0.0935913660441,0.0935913660441,0.0779928050368,0.0779928050368,0.0779928050368,0.0623942440294,0.0623942440294,0.0467956830221,0.0467956830221,0.0311971220147,0.0311971220147,0.0155985610074,0.0155985610074,0.0,0.0,-0.0155985610074,-0.0155985610074,-0.0311971220147,-0.0311971220147,-0.0467956830221,-0.0467956830221,-0.0623942440294,-0.0623942440294,-0.0779928050368,-0.0779928050368,-0.0935913660441,-0.0935913660441,-0.0935913660441,-0.109189927051,-0.109189927051,-0.124788488059,-0.124788488059,-0.140387049066,-0.140387049066,-0.140387049066,-0.155985610074,-0.155985610074,-0.171584171081,-0.171584171081,-0.187182732088,-0.187182732088,-0.202781293096,-0.202781293096,-0.218379854103,-0.218379854103,-0.23397841511,-0.23397841511,-0.23397841511,-0.249576976118,-0.249576976118,-0.249576976118,-0.265175537125,-0.265175537125,-0.280774098132,-0.280774098132,-0.29637265914,-0.29637265914,-0.29637265914,-0.311971220147,-0.311971220147,-0.327569781154,-0.327569781154,-0.327569781154,-0.343168342162,-0.343168342162,-0.358766903169,-0.358766903169,-0.374365464176,-0.374365464176,-0.374365464176,-0.389964025184,-0.389964025184,-0.389964025184,-0.405562586191,-0.405562586191,-0.421161147199,-0.421161147199,-0.436759708206,-0.436759708206,-0.452358269213,-0.452358269213,-0.452358269213,-0.467956830221,-0.467956830221,-0.483555391228,-0.483555391228,-0.483555391228,-0.499153952235,-0.499153952235,-0.514752513243,-0.514752513243,-0.514752513243,-0.53035107425,-0.53035107425,-0.545949635257,-0.545949635257,-0.545949635257,-0.561548196265,-0.561548196265,-0.577146757272,-0.577146757272,-0.592745318279,-0.592745318279,-0.592745318279,-0.608343879287,-0.608343879287,-0.608343879287,-0.623942440294,-0.623942440294,-0.623942440294,-0.639541001302,-0.639541001302,-0.655139562309,-0.655139562309,-0.655139562309,-0.670738123316,-0.670738123316,-0.670738123316,-0.686336684324,-0.686336684324,-0.701935245331,-0.701935245331,-0.701935245331,-0.717533806338,-0.717533806338,-0.733132367346,-0.733132367346,-0.733132367346,-0.748730928353,-0.748730928353,-0.748730928353,-0.76432948936,-0.76432948936,-0.779928050368,-0.779928050368,-0.779928050368,-0.795526611375,-0.795526611375,-0.795526611375,-0.811125172382,-0.811125172382,-0.811125172382,-0.82672373339,-0.82672373339,-0.82672373339,-0.842322294397,-0.842322294397,-0.842322294397,-0.857920855404,-0.857920855404,-0.857920855404,-0.873519416412,-0.873519416412,-0.889117977419,-0.889117977419,-0.889117977419,-0.904716538427,-0.904716538427,-0.904716538427,-0.920315099434,-0.920315099434,-0.920315099434,-0.935913660441,-0.935913660441,-0.935913660441,-0.951512221449,-0.951512221449,-0.951512221449,-0.967110782456,-0.967110782456,-0.967110782456,-0.982709343463,-0.982709343463,-0.998307904471,-0.998307904471,-0.998307904471,-1.01390646548,-1.01390646548,-1.01390646548,-1.02950502649,-1.02950502649,-1.02950502649,-1.04510358749,-1.04510358749,-1.04510358749,-1.0607021485,-1.0607021485,-1.0607021485,-1.07630070951,-1.07630070951,-1.07630070951,-1.09189927051,-1.09189927051,-1.09189927051,-1.10749783152,-1.10749783152,-1.10749783152,-1.12309639253,-1.12309639253,-1.12309639253,-1.13869495354,-1.13869495354,-1.13869495354,-1.15429351454,-1.15429351454,-1.15429351454,-1.15429351454,-1.16989207555,-1.16989207555,-1.16989207555,-1.18549063656,-1.18549063656,-1.20108919757,-1.20108919757,-1.20108919757,-1.21668775857,-1.21668775857,-1.21668775857,-1.23228631958,-1.23228631958,-1.23228631958,-1.23228631958,-1.24788488059,-1.24788488059,-1.24788488059,-1.24788488059,-1.2634834416,-1.2634834416,-1.2790820026,-1.2790820026,-1.2790820026,-1.29468056361,-1.29468056361,-1.29468056361,-1.29468056361,-1.29468056361,-1.29468056361,-1.29468056361,-1.29468056361,-1.29468056361,-1.29468056361,-1.29468056361,-1.29468056361,-1.29468056361,0.0,0.0,0.0,0.0,0.0,0.0,0.0,0.0,0.0,0.0,0.0,0.0,0.0,0.0,0.0,0.0,0.0,0.0,0.0,0.0,0.0,0.0,0.0,0.0,0.0,0.0,0.0,0.0,0.0,0.0,0.0,0.0,0.0,0.0
0.0,0.0,0.0,0.0,0.0,0.0,0.0,0.0,1.76263739383,1.74703883282,1.73144027182,1.71584171081,1.7002431498,1.68464458879,1.68464458879,1.66904602779,1.66904602779,1.65344746678,1.63784890577,1.62225034476,1.59105322275,1.57545466174,1.55985610074,1.55985610074,1.54425753973,1.52865897872,1.51306041771,1.49746185671,1.4818632957,1.46626473469,1.45066617368,1.45066617368,1.43506761268,1.43506761268,1.41946905167,1.41946905167,1.40387049066,1.38827192965,1.37267336865,1.37267336865,1.35707480764,1.34147624663,1.34147624663,1.32587768563,1.31027912462,1.31027912462,1.29468056361,1.2790820026,1.24788488059,1.23228631958,1.21668775857,1.21668775857,1.20108919757,1.18549063656,1.18549063656,1.16989207555,1.16989207555,1.15429351454,1.13869495354,1.12309639253,1.12309639253,1.10749783152,1.09189927051,1.09189927051,1.07630070951,1.0607021485,1.04510358749,1.02950502649,1.02950502649,1.01390646548,0.998307904471,0.998307904471,0.982709343463,0.982709343463,0.967110782456,0.951512221449,0.935913660441,0.935913660441,0.920315099434,0.920315099434,0.904716538427,0.904716538427,0.889117977419,0.873519416412,0.873519416412,0.873519416412,0.889117977419,0.889117977419,0.889117977419,0.857920855404,0.779928050368,0.76432948936,0.76432948936,0.76432948936,0.748730928353,0.748730928353,0.733132367346,0.733132367346,0.717533806338,0.717533806338,0.701935245331,0.686336684324,0.686336684324,0.670738123316,0.655139562309,0.639541001302,0.639541001302,0.623942440294,0.608343879287,0.608343879287,0.592745318279,0.592745318279,0.577146757272,0.577146757272,0.561548196265,0.561548196265,0.545949635257,0.545949635257,0.53035107425,0.53035107425,0.514752513243,0.499153952235,0.483555391228,0.483555391228,0.467956830221,0.467956830221,0.452358269213,0.452358269213,0.436759708206,0.436759708206,0.421161147199,0.421161147199,0.405562586191,0.405562586191,0.389964025184,0.389964025184,0.374365464176,0.358766903169,0.358766903169,0.343168342162,0.343168342162,0.327569781154,0.327569781154,0.311971220147,0.29637265914,0.29637265914,0.280774098132,0.280774098132,0.280774098132,0.265175537125,0.249576976118,0.249576976118,0.23397841511,0.23397841511,0.218379854103,0.218379854103,0.202781293096,0.202781293096,0.202781293096,0.187182732088,0.187182732088,0.171584171081,0.155985610074,0.155985610074,0.140387049066,0.140387049066,0.124788488059,0.109189927051,0.109189927051,0.0935913660441,0.0935913660441,0.0935913660441,0.0779928050368,0.0779928050368,0.0623942440294,0.0623942440294,0.0467956830221,0.0467956830221,0.0311971220147,0.0311971220147,0.0155985610074,0.0155985610074,0.0,0.0,-0.0155985610074,-0.0155985610074,-0.0311971220147,-0.0311971220147,-0.0467956830221,-0.0467956830221,-0.0623942440294,-0.0623942440294,-0.0779928050368,-0.0779928050368,-0.0779928050368,-0.0935913660441,-0.0935913660441,-0.109189927051,-0.109189927051,-0.124788488059,-0.124788488059,-0.140387049066,-0.140387049066,-0.140387049066,-0.155985610074,-0.155985610074,-0.171584171081,-0.171584171081,-0.187182732088,-0.187182732088,-0.202781293096,-0.202781293096,-0.218379854103,-0.218379854103,-0.218379854103,-0.23397841511,-0.23397841511,-0.249576976118,-0.249576976118,-0.249576976118,-0.265175537125,-0.265175537125,-0.280774098132,-0.280774098132,-0.280774098132,-0.29637265914,-0.29637265914,-0.311971220147,-0.311971220147,-0.311971220147,-0.327569781154,-0.327569781154,-0.343168342162,-0.343168342162,-0.358766903169,-0.358766903169,-0.374365464176,-0.374365464176,-0.374365464176,-0.389964025184,-0.389964025184,-0.389964025184,-0.405562586191,-0.405562586191,-0.421161147199,-0.421161147199,-0.436759708206,-0.436759708206,-0.452358269213,-0.452358269213,-0.452358269213,-0.467956830221,-0.467956830221,-0.483555391228,-0.483555391228,-0.483555391228,-0.499153952235,-0.499153952235,-0.514752513243,-0.514752513243,-0.514752513243,-0.53035107425,-0.53035107425,-0.545949635257,-0.545949635257,-0.545949635257,-0.561548196265,-0.561548196265,-0.577146757272,-0.577146757272,-0.577146757272,-0.592745318279,-0.592745318279,-0.608343879287,-0.608343879287,-0.608343879287,-0.623942440294,-0.623942440294,-0.623942440294,-0.639541001302,-0.639541001302,-0.655139562309,-0.655139562309,-0.655139562309,-0.670738123316,-0.670738123316,-0.670738123316,-0.686336684324,-0.686336684324,-0.686336684324,-0.701935245331,-0.701935245331,-0.717533806338,-0.717533806338,-0.717533806338,-0.733132367346,-0.733132367346,-0.733132367346,-0.748730928353,-0.748730928353,-0.76432948936,-0.76432948936,-0.76432948936,-0.779928050368,-0.779928050368,-0.779928050368,-0.795526611375,-0.795526611375,-0.811125172382,-0.811125172382,-0.811125172382,-0.82672373339,-0.82672373339,-0.82672373339,-0.842322294397,-0.842322294397,-0.842322294397,-0.857920855404,-0.857920855404,-0.857920855404,-0.873519416412,-0.873519416412,-0.873519416412,-0.889117977419,-0.889117977419,-0.904716538427,-0.904716538427,-0.904716538427,-0.920315099434,-0.920315099434,-0.920315099434,-0.935913660441,-0.935913660441,-0.935913660441,-0.951512221449,-0.951512221449,-0.951512221449,-0.967110782456,-0.967110782456,-0.967110782456,-0.982709343463,-0.982709343463,-0.982709343463,-0.998307904471,-0.998307904471,-1.01390646548,-1.01390646548,-1.01390646548,-1.02950502649,-1.02950502649,-1.02950502649,-1.04510358749,-1.04510358749,-1.04510358749,-1.0607021485,-1.0607021485,-1.0607021485,-1.07630070951,-1.07630070951,-1.07630070951,-1.09189927051,-1.09189927051,-1.09189927051,-1.10749783152,-1.10749783152,-1.10749783152,-1.12309639253,-1.12309639253,-1.12309639253,-1.13869495354,-1.13869495354,-1.13869495354,-1.13869495354,-1.15429351454,-1.15429351454,-1.15429351454,-1.16989207555,-1.16989207555,-1.16989207555,-1.18549063656,-1.18549063656,-1.18549063656,-1.20108919757,-1.20108919757,-1.21668775857,-1.21668775857,-1.21668775857,-1.23228631958,-1.23228631958,-1.23228631958,-1.23228631958,-1.24788488059,-1.24788488059,-1.24788488059,-1.24788488059,-1.2634834416,-1.2634834416,-1.2790820026,-1.2790820026,-1.2790820026,-1.2790820026,-1.29468056361,-1.29468056361,-1.29468056361,-1.29468056361,-1.29468056361,-1.29468056361,-1.29468056361,-1.29468056361,-1.29468056361,-1.29468056361,-1.29468056361,-1.29468056361,0.0,0.0,0.0,0.0,0.0,0.0,0.0,0.0,0.0,0.0,0.0,0.0,0.0,0.0,0.0,0.0,0.0,0.0,0.0,0.0,0.0,0.0,0.0,0.0,0.0,0.0,0.0,0.0,0.0,0.0,0.0,0.0,0.0,0.0
0.0,0.0,0.0,0.0,1.82503163786,1.82503163786,1.80943307685,1.79383451585,1.77823595484,1.76263739383,1.73144027182,1.71584171081,1.7002431498,1.68464458879,1.68464458879,1.66904602779,1.66904602779,1.65344746678,1.63784890577,1.62225034476,1.60665178376,1.59105322275,1.57545466174,1.55985610074,1.54425753973,1.54425753973,1.52865897872,1.51306041771,1.49746185671,1.4818632957,1.46626473469,1.45066617368,1.43506761268,1.43506761268,1.41946905167,1.41946905167,1.40387049066,1.38827192965,1.37267336865,1.37267336865,1.35707480764,1.34147624663,1.34147624663,1.32587768563,1.31027912462,1.31027912462,1.29468056361,1.2790820026,1.2634834416,1.24788488059,1.23228631958,1.21668775857,1.20108919757,1.20108919757,1.18549063656,1.16989207555,1.16989207555,1.15429351454,1.13869495354,1.13869495354,1.12309639253,1.10749783152,1.09189927051,1.09189927051,1.07630070951,1.0607021485,1.04510358749,1.02950502649,1.02950502649,1.01390646548,0.998307904471,0.998307904471,0.982709343463,0.982709343463,0.967110782456,0.951512221449,0.951512221449,0.935913660441,0.920315099434,0.920315099434,0.904716538427,0.904716538427,0.889117977419,0.889117977419,0.873519416412,0.873519416412,0.873519416412,0.873519416412,0.873519416412,0.842322294397,0.779928050368,0.779928050368,0.76432948936,0.76432948936,0.76432948936,0.748730928353,0.733132367346,0.733132367346,0.717533806338,0.717533806338,0.701935245331,0.701935245331,0.686336684324,0.670738123316,0.655139562309,0.655139562309,0.639541001302,0.623942440294,0.623942440294,0.608343879287,0.608343879287,0.592745318279,0.592745318279,0.577146757272,0.561548196265,0.561548196265,0.545949635257,0.545949635257,0.53035107425,0.53035107425,0.514752513243,0.499153952235,0.499153952235,0.483555391228,0.467956830221,0.467956830221,0.452358269213,0.452358269213,0.436759708206,0.436759708206,0.421161147199,0.421161147199,0.405562586191,0.405562586191,0.389964025184,0.389964025184,0.374365464176,0.374365464176,0.358766903169,0.358766903169,0.343168342162,0.327569781154,0.327569781154,0.311971220147,0.311971220147,0.29637265914,0.29637265914,0.280774098132,0.280774098132,0.265175537125,0.265175537125,0.249576976118,0.249576976118,0.23397841511,0.218379854103,0.218379854103,0.218379854103,0.202781293096,0.202781293096,0.187182732088,0.187182732088,0.171584171081,0.155985610074,0.155985610074,0.140387049066,0.140387049066,0.124788488059,0.109189927051,0.109189927051,0.0935913660441,0.0935913660441,0.0935913660441,0.0779928050368,0.0779928050368,0.0623942440294,0.0623942440294,0.0467956830221,0.0467956830221,0.0311971220147,0.0311971220147,0.0155985610074,0.0155985610074,0.0,0.0,-0.0155985610074,-0.0155985610074,-0.0311971220147,-0.0311971220147,-0.0311971220147,-0.0467956830221,-0.0467956830221,-0.0623942440294,-0.0623942440294,-0.0779928050368,-0.0779928050368,-0.0935913660441,-0.0935913660441,-0.109189927051,-0.109189927051,-0.124788488059,-0.124788488059,-0.124788488059,-0.140387049066,-0.140387049066,-0.155985610074,-0.155985610074,-0.171584171081,-0.171584171081,-0.171584171081,-0.187182732088,-0.187182732088,-0.202781293096,-0.218379854103,-0.218379854103,-0.218379854103,-0.23397841511,-0.23397841511,-0.23397841511,-0.249576976118,-0.249576976118,-0.265175537125,-0.265175537125,-0.280774098132,-0.280774098132,-0.280774098132,-0.29637265914,-0.29637265914,-0.311971220147,-0.311971220147,-0.311971220147,-0.327569781154,-0.327569781154,-0.343168342162,-0.343168342162,-0.358766903169,-0.358766903169,-0.358766903169,-0.374365464176,-0.374365464176,-0.389964025184,-0.389964025184,-0.389964025184,-0.405562586191,-0.405562586191,-0.421161147199,-0.421161147199,-0.436759708206,-0.436759708206,-0.452358269213,-0.452358269213,-0.452358269213,-0.467956830221,-0.467956830221,-0.483555391228,-0.483555391228,-0.483555391228,-0.499153952235,-0.499153952235,-0.499153952235,-0.514752513243,-0.514752513243,-0.53035107425,-0.53035107425,-0.53035107425,-0.545949635257,-0.545949635257,-0.561548196265,-0.561548196265,-0.577146757272,-0.577146757272,-0.577146757272,-0.592745318279,-0.592745318279,-0.608343879287,-0.608343879287,-0.608343879287,-0.623942440294,-0.623942440294,-0.623942440294,-0.639541001302,-0.639541001302,-0.655139562309,-0.655139562309,-0.655139562309,-0.670738123316,-0.670738123316,-0.670738123316,-0.686336684324,-0.686336684324,-0.686336684324,-0.701935245331,-0.701935245331,-0.717533806338,-0.717533806338,-0.717533806338,-0.733132367346,-0.733132367346,-0.733132367346,-0.748730928353,-0.748730928353,-0.76432948936,-0.76432948936,-0.76432948936,-0.779928050368,-0.779928050368,-0.779928050368,-0.795526611375,-0.795526611375,-0.795526611375,-0.811125172382,-0.811125172382,-0.82672373339,-0.82672373339,-0.82672373339,-0.842322294397,-0.842322294397,-0.842322294397,-0.842322294397,-0.857920855404,-0.857920855404,-0.873519416412,-0.873519416412,-0.873519416412,-0.889117977419,-0.889117977419,-0.904716538427,-0.904716538427,-0.904716538427,-0.920315099434,-0.920315099434,-0.920315099434,-0.935913660441,-0.935913660441,-0.935913660441,-0.951512221449,-0.951512221449,-0.951512221449,-0.967110782456,-0.967110782456,-0.967110782456,-0.982709343463,-0.982709343463,-0.982709343463,-0.998307904471,-0.998307904471,-1.01390646548,-1.01390646548,-1.01390646548,-1.02950502649,-1.02950502649,-1.02950502649,-1.04510358749,-1.04510358749,-1.04510358749,-1.0607021485,-1.0607021485,-1.0607021485,-1.07630070951,-1.07630070951,-1.07630070951,-1.09189927051,-1.09189927051,-1.09189927051,-1.09189927051,-1.10749783152,-1.10749783152,-1.12309639253,-1.12309639253,-1.12309639253,-1.13869495354,-1.13869495354,-1.13869495354,-1.13869495354,-1.15429351454,-1.15429351454,-1.15429351454,-1.16989207555,-1.16989207555,-1.16989207555,-1.18549063656,-1.18549063656,-1.18549063656,-1.20108919757,-1.20108919757,-1.21668775857,-1.21668775857,-1.21668775857,-1.21668775857,-1.23228631958,-1.23228631958,-1.23228631958,-1.23228631958,-1.24788488059,-1.24788488059,-1.24788488059,-1.2634834416,-1.2634834416,-1.2790820026,-1.2790820026,-1.2790820026,-1.2790820026,-1.29468056361,-1.29468056361,-1.29468056361,-1.29468056361,-1.29468056361,-1.29468056361,-1.29468056361,-1.29468056361,-1.29468056361,-1.29468056361,-1.29468056361,-1.29468056361,0.0,0.0,0.0,0.0,0.0,0.0,0.0,0.0,0.0,0.0,0.0,0.0,0.0,0.0,0.0,0.0,0.0,0.0,0.0,0.0,0.0,0.0,0.0,0.0,0.0,0.0,0.0,0.0,0.0,0.0,0.0,0.0,0.0,0.0
1.87182732088,1.85622875988,1.84063019887,1.82503163786,1.82503163786,1.82503163786,1.80943307685,1.79383451585,1.77823595484,1.76263739383,1.74703883282,1.71584171081,1.7002431498,1.68464458879,1.68464458879,1.66904602779,1.66904602779,1.65344746678,1.63784890577,1.62225034476,1.60665178376,1.59105322275,1.57545466174,1.55985610074,1.55985610074,1.54425753973,1.52865897872,1.51306041771,1.49746185671,1.4818632957,1.46626473469,1.46626473469,1.45066617368,1.43506761268,1.43506761268,1.41946905167,1.40387049066,1.38827192965,1.37267336865,1.37267336865,1.35707480764,1.34147624663,1.34147624663,1.32587768563,1.32587768563,1.31027912462,1.29468056361,1.2790820026,1.2634834416,1.24788488059,1.23228631958,1.21668775857,1.20108919757,1.20108919757,1.18549063656,1.18549063656,1.16989207555,1.15429351454,1.15429351454,1.13869495354,1.12309639253,1.10749783152,1.10749783152,1.09189927051,1.07630070951,1.0607021485,1.04510358749,1.04510358749,1.02950502649,1.01390646548,1.01390646548,0.998307904471,0.998307904471,0.982709343463,0.967110782456,0.967110782456,0.951512221449,0.935913660441,0.920315099434,0.920315099434,0.904716538427,0.904716538427,0.889117977419,0.889117977419,0.873519416412,0.873519416412,0.873519416412,0.873519416412,0.842322294397,0.842322294397,0.795526611375,0.779928050368,0.76432948936,0.76432948936,0.76432948936,0.748730928353,0.733132367346,0.733132367346,0.733132367346,0.717533806338,0.717533806338,0.701935245331,0.686336684324,0.670738123316,0.670738123316,0.655139562309,0.639541001302,0.639541001302,0.623942440294,0.608343879287,0.608343879287,0.592745318279,0.592745318279,0.577146757272,0.577146757272,0.561548196265,0.561548196265,0.545949635257,0.53035107425,0.53035107425,0.514752513243,0.499153952235,0.499153952235,0.483555391228,0.467956830221,0.467956830221,0.452358269213,0.452358269213,0.452358269213,0.436759708206,0.421161147199,0.421161147199,0.405562586191,0.405562586191,0.389964025184,0.389964025184,0.374365464176,0.374365464176,0.358766903169,0.358766903169,0.343168342162,0.343168342162,0.327569781154,0.311971220147,0.311971220147,0.29637265914,0.29637265914,0.280774098132,0.280774098132,0.265175537125,0.265175537125,0.249576976118,0.249576976118,0.23397841511,0.23397841511,0.218379854103,0.218379854103,0.202781293096,0.202781293096,0.187182732088,0.187182732088,0.171584171081,0.155985610074,0.155985610074,0.140387049066,0.140387049066,0.124788488059,0.124788488059,0.109189927051,0.109189927051,0.0935913660441,0.0935913660441,0.0779928050368,0.0779928050368,0.0623942440294,0.0623942440294,0.0467956830221,0.0467956830221,0.0311971220147,0.0311971220147,0.0155985610074,0.0155985610074,0.0,0.0,-0.0155985610074,-0.0155985610074,-0.0155985610074,-0.0311971220147,-0.0311971220147,-0.0467956830221,-0.0467956830221,-0.0623942440294,-0.0623942440294,-0.0779928050368,-0.0779928050368,-0.0935913660441,-0.0935913660441,-0.109189927051,-0.109189927051,-0.124788488059,-0.124788488059,-0.124788488059,-0.140387049066,-0.140387049066,-0.155985610074,-0.155985610074,-0.171584171081,-0.171584171081,-0.171584171081,-0.187182732088,-0.187182732088,-0.202781293096,-0.202781293096,-0.218379854103,-0.218379854103,-0.23397841511,-0.23397841511,-0.23397841511,-0.249576976118,-0.249576976118,-0.265175537125,-0.265175537125,-0.280774098132,-0.280774098132,-0.280774098132,-0.29637265914,-0.29637265914,-0.311971220147,-0.311971220147,-0.311971220147,-0.327569781154,-0.327569781154,-0.343168342162,-0.343168342162,-0.343168342162,-0.358766903169,-0.358766903169,-0.374365464176,-0.374365464176,-0.389964025184,-0.389964025184,-0.389964025184,-0.405562586191,-0.405562586191,-0.421161147199,-0.421161147199,-0.436759708206,-0.436759708206,-0.452358269213,-0.452358269213,-0.452358269213,-0.467956830221,-0.467956830221,-0.467956830221,-0.483555391228,-0.483555391228,-0.499153952235,-0.499153952235,-0.499153952235,-0.514752513243,-0.514752513243,-0.53035107425,-0.53035107425,-0.53035107425,-0.545949635257,-0.545949635257,-0.561548196265,-0.561548196265,-0.577146757272,-0.577146757272,-0.577146757272,-0.592745318279,-0.592745318279,-0.592745318279,-0.608343879287,-0.608343879287,-0.623942440294,-0.623942440294,-0.623942440294,-0.639541001302,-0.639541001302,-0.639541001302,-0.655139562309,-0.655139562309,-0.670738123316,-0.670738123316,-0.670738123316,-0.686336684324,-0.686336684324,-0.686336684324,-0.701935245331,-0.701935245331,-0.701935245331,-0.717533806338,-0.717533806338,-0.733132367346,-0.733132367346,-0.733132367346,-0.748730928353,-0.748730928353,-0.748730928353,-0.76432948936,-0.76432948936,-0.779928050368,-0.779928050368,-0.779928050368,-0.795526611375,-0.795526611375,-0.795526611375,-0.811125172382,-0.811125172382,-0.82672373339,-0.82672373339,-0.82672373339,-0.842322294397,-0.842322294397,-0.842322294397,-0.842322294397,-0.857920855404,-0.857920855404,-0.873519416412,-0.873519416412,-0.873519416412,-0.889117977419,-0.889117977419,-0.904716538427,-0.904716538427,-0.904716538427,-0.920315099434,-0.920315099434,-0.920315099434,-0.935913660441,-0.935913660441,-0.935913660441,-0.951512221449,-0.951512221449,-0.951512221449,-0.951512221449,-0.967110782456,-0.967110782456,-0.982709343463,-0.982709343463,-0.982709343463,-0.998307904471,-0.998307904471,-1.01390646548,-1.01390646548,-1.01390646548,-1.02950502649,-1.02950502649,-1.02950502649,-1.04510358749,-1.04510358749,-1.04510358749,-1.04510358749,-1.0607021485,-1.0607021485,-1.0607021485,-1.07630070951,-1.07630070951,-1.07630070951,-1.09189927051,-1.09189927051,-1.09189927051,-1.10749783152,-1.10749783152,-1.10749783152,-1.12309639253,-1.12309639253,-1.12309639253,-1.13869495354,-1.13869495354,-1.13869495354,-1.15429351454,-1.15429351454,-1.15429351454,-1.16989207555,-1.16989207555,-1.16989207555,-1.18549063656,-1.18549063656,-1.18549063656,-1.20108919757,-1.20108919757,-1.20108919757,-1.21668775857,-1.21668775857,-1.21668775857,-1.23228631958,-1.23228631958,-1.23228631958,-1.23228631958,-1.24788488059,-1.24788488059,-1.24788488059,-1.2634834416,-1.2634834416,-1.2634834416,-1.2790820026,-1.2790820026,-1.2790820026,-1.29468056361,-1.29468056361,-1.29468056361,-1.29468056361,-1.29468056361,-1.29468056361,-1.29468056361,-1.29468056361,-1.29468056361,-1.29468056361,-1.29468056361,-1.29468056361,0.0,0.0,0.0,0.0,0.0,0.0,0.0,0.0,0.0,0.0,0.0,0.0,0.0,0.0,0.0,0.0,0.0,0.0,0.0,0.0,0.0,0.0,0.0,0.0,0.0,0.0,0.0,0.0,0.0,0.0,0.0,0.0,0.0,0.0
1.87182732088,1.85622875988,1.84063019887,1.84063019887,1.82503163786,1.82503163786,1.80943307685,1.80943307685,1.79383451585,1.76263739383,1.74703883282,1.71584171081,1.7002431498,1.68464458879,1.68464458879,1.66904602779,1.66904602779,1.65344746678,1.65344746678,1.63784890577,1.62225034476,1.60665178376,1.59105322275,1.57545466174,1.55985610074,1.54425753973,1.52865897872,1.51306041771,1.51306041771,1.49746185671,1.4818632957,1.46626473469,1.45066617368,1.45066617368,1.43506761268,1.41946905167,1.40387049066,1.38827192965,1.37267336865,1.37267336865,1.35707480764,1.35707480764,1.34147624663,1.32587768563,1.32587768563,1.31027912462,1.29468056361,1.2790820026,1.2634834416,1.24788488059,1.23228631958,1.21668775857,1.21668775857,1.20108919757,1.20108919757,1.18549063656,1.16989207555,1.15429351454,1.15429351454,1.13869495354,1.12309639253,1.12309639253,1.10749783152,1.09189927051,1.07630070951,1.0607021485,1.0607021485,1.04510358749,1.02950502649,1.02950502649,1.01390646548,0.998307904471,0.998307904471,0.982709343463,0.982709343463,0.967110782456,0.951512221449,0.935913660441,0.935913660441,0.920315099434,0.904716538427,0.904716538427,0.889117977419,0.889117977419,0.873519416412,0.873519416412,0.857920855404,0.857920855404,0.842322294397,0.82672373339,0.811125172382,0.795526611375,0.779928050368,0.76432948936,0.76432948936,0.748730928353,0.748730928353,0.733132367346,0.733132367346,0.717533806338,0.717533806338,0.701935245331,0.686336684324,0.670738123316,0.670738123316,0.655139562309,0.639541001302,0.639541001302,0.623942440294,0.623942440294,0.608343879287,0.592745318279,0.592745318279,0.577146757272,0.577146757272,0.561548196265,0.561548196265,0.545949635257,0.545949635257,0.53035107425,0.514752513243,0.514752513243,0.499153952235,0.483555391228,0.483555391228,0.467956830221,0.467956830221,0.452358269213,0.452358269213,0.436759708206,0.436759708206,0.421161147199,0.405562586191,0.405562586191,0.389964025184,0.389964025184,0.374365464176,0.374365464176,0.358766903169,0.358766903169,0.343168342162,0.343168342162,0.327569781154,0.311971220147,0.311971220147,0.29637265914,0.29637265914,0.280774098132,0.280774098132,0.265175537125,0.265175537125,0.249576976118,0.249576976118,0.23397841511,0.23397841511,0.218379854103,0.218379854103,0.202781293096,0.202781293096,0.187182732088,0.187182732088,0.171584171081,0.155985610074,0.155985610074,0.140387049066,0.140387049066,0.124788488059,0.124788488059,0.109189927051,0.109189927051,0.0935913660441,0.0935913660441,0.0779928050368,0.0779928050368,0.0623942440294,0.0623942440294,0.0467956830221,0.0467956830221,0.0467956830221,0.0311971220147,0.0155985610074,0.0155985610074,0.0,0.0,-0.0155985610074,-0.0155985610074,-0.0155985610074,-0.0311971220147,-0.0311971220147,-0.0467956830221,-0.0467956830221,-0.0623942440294,-0.0623942440294,-0.0779928050368,-0.0779928050368,-0.0935913660441,-0.0935913660441,-0.109189927051,-0.109189927051,-0.109189927051,-0.124788488059,-0.124788488059,-0.140387049066,-0.140387049066,-0.155985610074,-0.155985610074,-0.155985610074,-0.171584171081,-0.171584171081,-0.187182732088,-0.187182732088,-0.202781293096,-0.202781293096,-0.218379854103,-0.218379854103,-0.23397841511,-0.23397841511,-0.23397841511,-0.249576976118,-0.249576976118,-0.249576976118,-0.265175537125,-0.265175537125,-0.280774098132,-0.280774098132,-0.29637265914,-0.29637265914,-0.311971220147,-0.311971220147,-0.311971220147,-0.327569781154,-0.327569781154,-0.343168342162,-0.343168342162,-0.343168342162,-0.358766903169,-0.358766903169,-0.374365464176,-0.374365464176,-0.374365464176,-0.389964025184,-0.389964025184,-0.405562586191,-0.405562586191,-0.421161147199,-0.421161147199,-0.436759708206,-0.436759708206,-0.452358269213,-0.452358269213,-0.452358269213,-0.467956830221,-0.467956830221,-0.467956830221,-0.483555391228,-0.483555391228,-0.499153952235,-0.499153952235,-0.499153952235,-0.514752513243,-0.514752513243,-0.514752513243,-0.53035107425,-0.53035107425,-0.545949635257,-0.545949635257,-0.561548196265,-0.561548196265,-0.577146757272,-0.577146757272,-0.577146757272,-0.592745318279,-0.592745318279,-0.592745318279,-0.608343879287,-0.608343879287,-0.608343879287,-0.623942440294,-0.623942440294,-0.639541001302,-0.639541001302,-0.639541001302,-0.655139562309,-0.655139562309,-0.670738123316,-0.670738123316,-0.670738123316,-0.686336684324,-0.686336684324,-0.686336684324,-0.701935245331,-0.701935245331,-0.701935245331,-0.717533806338,-0.717533806338,-0.717533806338,-0.733132367346,-0.733132367346,-0.733132367346,-0.748730928353,-0.748730928353,-0.76432948936,-0.76432948936,-0.76432948936,-0.779928050368,-0.779928050368,-0.779928050368,-0.795526611375,-0.795526611375,-0.811125172382,-0.811125172382,-0.811125172382,-0.82672373339,-0.82672373339,-0.82672373339,-0.842322294397,-0.842322294397,-0.842322294397,-0.857920855404,-0.857920855404,-0.873519416412,-0.873519416412,-0.873519416412,-0.889117977419,-0.889117977419,-0.904716538427,-0.904716538427,-0.904716538427,-0.920315099434,-0.920315099434,-0.920315099434,-0.935913660441,-0.935913660441,-0.935913660441,-0.951512221449,-0.951512221449,-0.951512221449,-0.951512221449,-0.967110782456,-0.967110782456,-0.982709343463,-0.982709343463,-0.982709343463,-0.998307904471,-0.998307904471,-1.01390646548,-1.01390646548,-1.01390646548,-1.02950502649,-1.02950502649,-1.02950502649,-1.04510358749,-1.04510358749,-1.04510358749,-1.04510358749,-1.0607021485,-1.0607021485,-1.0607021485,-1.07630070951,-1.07630070951,-1.07630070951,-1.09189927051,-1.09189927051,-1.09189927051,-1.10749783152,-1.10749783152,-1.10749783152,-1.12309639253,-1.12309639253,-1.12309639253,-1.13869495354,-1.13869495354,-1.13869495354,-1.15429351454,-1.15429351454,-1.15429351454,-1.16989207555,-1.16989207555,-1.16989207555,-1.18549063656,-1.18549063656,-1.18549063656,-1.20108919757,-1.20108919757,-1.20108919757,-1.21668775857,-1.21668775857,-1.21668775857,-1.23228631958,-1.23228631958,-1.23228631958,-1.23228631958,-1.24788488059,-1.24788488059,-1.24788488059,-1.2634834416,-1.2634834416,-1.2634834416,-1.2790820026,-1.2790820026,-1.2790820026,-1.2790820026,-1.29468056361,-1.29468056361,-1.29468056361,-1.29468056361,-1.29468056361,-1.29468056361,-1.29468056361,-1.29468056361,-1.29468056361,-1.29468056361,-1.29468056361,0.0,0.0,0.0,0.0,0.0,0.0,0.0,0.0,0.0,0.0,0.0,0.0,0.0,0.0,0.0,0.0,0.0,0.0,0.0,0.0,0.0,0.0,0.0,0.0,0.0,0.0,0.0,0.0,0.0,0.0,0.0,0.0,0.0,0.0
1.88742588189,1.85622875988,1.85622875988,1.84063019887,1.82503163786,1.82503163786,1.82503163786,1.80943307685,1.79383451585,1.77823595484,1.74703883282,1.73144027182,1.7002431498,1.68464458879,1.68464458879,1.66904602779,1.66904602779,1.65344746678,1.65344746678,1.63784890577,1.62225034476,1.60665178376,1.59105322275,1.57545466174,1.55985610074,1.54425753973,1.52865897872,1.52865897872,1.51306041771,1.49746185671,1.4818632957,1.46626473469,1.46626473469,1.45066617368,1.43506761268,1.41946905167,1.40387049066,1.38827192965,1.38827192965,1.37267336865,1.35707480764,1.35707480764,1.34147624663,1.32587768563,1.32587768563,1.31027912462,1.29468056361,1.2790820026,1.2634834416,1.24788488059,1.23228631958,1.23228631958,1.21668775857,1.20108919757,1.20108919757,1.18549063656,1.16989207555,1.16989207555,1.15429351454,1.13869495354,1.13869495354,1.12309639253,1.10749783152,1.09189927051,1.07630070951,1.07630070951,1.0607021485,1.04510358749,1.04510358749,1.02950502649,1.01390646548,1.01390646548,0.998307904471,0.982709343463,0.982709343463,0.967110782456,0.951512221449,0.935913660441,0.935913660441,0.920315099434,0.920315099434,0.904716538427,0.904716538427,0.889117977419,0.889117977419,0.873519416412,0.857920855404,0.857920855404,0.842322294397,0.82672373339,0.811125172382,0.795526611375,0.779928050368,0.779928050368,0.76432948936,0.748730928353,0.748730928353,0.733132367346,0.733132367346,0.717533806338,0.717533806338,0.701935245331,0.686336684324,0.686336684324,0.670738123316,0.655139562309,0.639541001302,0.639541001302,0.623942440294,0.623942440294,0.608343879287,0.608343879287,0.592745318279,0.577146757272,0.577146757272,0.561548196265,0.561548196265,0.545949635257,0.545949635257,0.53035107425,0.53035107425,0.514752513243,0.499153952235,0.483555391228,0.483555391228,0.467956830221,0.467956830221,0.452358269213,0.452358269213,0.436759708206,0.436759708206,0.421161147199,0.405562586191,0.405562586191,0.389964025184,0.389964025184,0.374365464176,0.374365464176,0.358766903169,0.358766903169,0.343168342162,0.343168342162,0.327569781154,0.327569781154,0.311971220147,0.29637265914,0.29637265914,0.280774098132,0.280774098132,0.265175537125,0.265175537125,0.249576976118,0.249576976118,0.23397841511,0.23397841511,0.218379854103,0.218379854103,0.202781293096,0.202781293096,0.187182732088,0.187182732088,0.171584171081,0.171584171081,0.155985610074,0.140387049066,0.140387049066,0.124788488059,0.124788488059,0.109189927051,0.109189927051,0.0935913660441,0.0935913660441,0.0779928050368,0.0779928050368,0.0623942440294,0.0623942440294,0.0467956830221,0.0467956830221,0.0467956830221,0.0311971220147,0.0311971220147,0.0155985610074,0.0155985610074,0.0,0.0,-0.0155985610074,-0.0155985610074,-0.0311971220147,-0.0311971220147,-0.0467956830221,-0.0467956830221,-0.0623942440294,-0.0623942440294,-0.0779928050368,-0.0779928050368,-0.0779928050368,-0.0935913660441,-0.0935913660441,-0.109189927051,-0.109189927051,-0.124788488059,-0.124788488059,-0.140387049066,-0.140387049066,-0.155985610074,-0.155985610074,-0.155985610074,-0.171584171081,-0.171584171081,-0.187182732088,-0.187182732088,-0.202781293096,-0.202781293096,-0.218379854103,-0.218379854103,-0.218379854103,-0.23397841511,-0.23397841511,-0.249576976118,-0.249576976118,-0.249576976118,-0.265175537125,-0.265175537125,-0.280774098132,-0.280774098132,-0.29637265914,-0.29637265914,-0.311971220147,-0.311971220147,-0.311971220147,-0.327569781154,-0.327569781154,-0.327569781154,-0.343168342162,-0.343168342162,-0.358766903169,-0.358766903169,-0.374365464176,-0.374365464176,-0.374365464176,-0.389964025184,-0.389964025184,-0.405562586191,-0.405562586191,-0.421161147199,-0.421161147199,-0.436759708206,-0.436759708206,-0.436759708206,-0.452358269213,-0.452358269213,-0.467956830221,-0.467956830221,-0.467956830221,-0.483555391228,-0.483555391228,-0.483555391228,-0.499153952235,-0.499153952235,-0.514752513243,-0.514752513243,-0.514752513243,-0.53035107425,-0.53035107425,-0.545949635257,-0.545949635257,-0.561548196265,-0.561548196265,-0.577146757272,-0.577146757272,-0.577146757272,-0.592745318279,-0.592745318279,-0.592745318279,-0.608343879287,-0.608343879287,-0.608343879287,-0.623942440294,-0.623942440294,-0.639541001302,-0.639541001302,-0.639541001302,-0.655139562309,-0.655139562309,-0.655139562309,-0.670738123316,-0.670738123316,-0.686336684324,-0.686336684324,-0.686336684324,-0.701935245331,-0.701935245331,-0.701935245331,-0.717533806338,-0.717533806338,-0.717533806338,-0.733132367346,-0.733132367346,-0.733132367346,-0.748730928353,-0.748730928353,-0.76432948936,-0.76432948936,-0.76432948936,-0.779928050368,-0.779928050368,-0.779928050368,-0.795526611375,-0.795526611375,-0.811125172382,-0.811125172382,-0.811125172382,-0.82672373339,-0.82672373339,-0.82672373339,-0.842322294397,-0.842322294397,-0.842322294397,-0.857920855404,-0.857920855404,-0.857920855404,-0.873519416412,-0.873519416412,-0.889117977419,-0.889117977419,-0.889117977419,-0.904716538427,-0.904716538427,-0.920315099434,-0.920315099434,-0.920315099434,-0.935913660441,-0.935913660441,-0.935913660441,-0.951512221449,-0.951512221449,-0.951512221449,-0.951512221449,-0.967110782456,-0.967110782456,-0.967110782456,-0.982709343463,-0.982709343463,-0.998307904471,-0.998307904471,-0.998307904471,-1.01390646548,-1.01390646548,-1.02950502649,-1.02950502649,-1.02950502649,-1.04510358749,-1.04510358749,-1.04510358749,-1.04510358749,-1.0607021485,-1.0607021485,-1.0607021485,-1.07630070951,-1.07630070951,-1.07630070951,-1.09189927051,-1.09189927051,-1.09189927051,-1.10749783152,-1.10749783152,-1.10749783152,-1.12309639253,-1.12309639253,-1.12309639253,-1.13869495354,-1.13869495354,-1.13869495354,-1.15429351454,-1.15429351454,-1.15429351454,-1.16989207555,-1.16989207555,-1.16989207555,-1.18549063656,-1.18549063656,-1.18549063656,-1.20108919757,-1.20108919757,-1.20108919757,-1.21668775857,-1.21668775857,-1.21668775857,-1.23228631958,-1.23228631958,-1.23228631958,-1.23228631958,-1.24788488059,-1.24788488059,-1.24788488059,-1.2634834416,-1.2634834416,-1.2634834416,-1.2790820026,-1.2790820026,-1.2790820026,-1.2790820026,-1.2790820026,-1.29468056361,-1.29468056361,-1.29468056361,-1.29468056361,-1.29468056361,-1.29468056361,-1.29468056361,-1.29468056361,-1.29468056361,-1.29468056361,0.0,0.0,0.0,0.0,0.0,0.0,0.0,0.0,0.0,0.0,0.0,0.0,0.0,0.0,0.0,0.0,0.0,0.0,0.0,0.0,0.0,0.0,0.0,0.0,0.0,0.0,0.0,0.0,0.0,0.0,0.0,0.0,0.0,0.0
1.88742588189,1.87182732088,1.85622875988,1.84063019887,1.84063019887,1.82503163786,1.82503163786,1.80943307685,1.80943307685,1.77823595484,1.76263739383,1.73144027182,1.7002431498,1.68464458879,1.68464458879,1.66904602779,1.66904602779,1.65344746678,1.65344746678,1.63784890577,1.62225034476,1.60665178376,1.59105322275,1.57545466174,1.55985610074,1.54425753973,1.54425753973,1.52865897872,1.51306041771,1.49746185671,1.4818632957,1.4818632957,1.46626473469,1.45066617368,1.43506761268,1.41946905167,1.40387049066,1.38827192965,1.38827192965,1.37267336865,1.35707480764,1.35707480764,1.34147624663,1.32587768563,1.32587768563,1.31027912462,1.29468056361,1.2790820026,1.2634834416,1.2634834416,1.24788488059,1.23228631958,1.21668775857,1.21668775857,1.20108919757,1.18549063656,1.18549063656,1.16989207555,1.15429351454,1.15429351454,1.13869495354,1.12309639253,1.10749783152,1.10749783152,1.09189927051,1.07630070951,1.0607021485,1.04510358749,1.04510358749,1.02950502649,1.02950502649,1.01390646548,0.998307904471,0.998307904471,0.982709343463,0.967110782456,0.951512221449,0.951512221449,0.935913660441,0.920315099434,0.920315099434,0.904716538427,0.904716538427,0.889117977419,0.889117977419,0.873519416412,0.857920855404,0.842322294397,0.842322294397,0.82672373339,0.811125172382,0.795526611375,0.795526611375,0.779928050368,0.76432948936,0.748730928353,0.748730928353,0.733132367346,0.733132367346,0.733132367346,0.717533806338,0.701935245331,0.686336684324,0.686336684324,0.670738123316,0.655139562309,0.655139562309,0.639541001302,0.623942440294,0.623942440294,0.608343879287,0.608343879287,0.592745318279,0.592745318279,0.577146757272,0.577146757272,0.561548196265,0.545949635257,0.545949635257,0.53035107425,0.53035107425,0.514752513243,0.499153952235,0.499153952235,0.483555391228,0.467956830221,0.467956830221,0.452358269213,0.452358269213,0.436759708206,0.436759708206,0.421161147199,0.421161147199,0.405562586191,0.389964025184,0.389964025184,0.374365464176,0.374365464176,0.374365464176,0.358766903169,0.358766903169,0.343168342162,0.327569781154,0.327569781154,0.311971220147,0.311971220147,0.29637265914,0.29637265914,0.280774098132,0.280774098132,0.265175537125,0.265175537125,0.249576976118,0.23397841511,0.23397841511,0.218379854103,0.218379854103,0.202781293096,0.202781293096,0.187182732088,0.187182732088,0.171584171081,0.171584171081,0.155985610074,0.155985610074,0.140387049066,0.140387049066,0.124788488059,0.124788488059,0.109189927051,0.0935913660441,0.0935913660441,0.0935913660441,0.0779928050368,0.0779928050368,0.0623942440294,0.0623942440294,0.0467956830221,0.0467956830221,0.0311971220147,0.0311971220147,0.0155985610074,0.0155985610074,0.0,0.0,-0.0155985610074,-0.0155985610074,-0.0311971220147,-0.0311971220147,-0.0467956830221,-0.0467956830221,-0.0623942440294,-0.0623942440294,-0.0623942440294,-0.0779928050368,-0.0779928050368,-0.0935913660441,-0.0935913660441,-0.109189927051,-0.109189927051,-0.124788488059,-0.124788488059,-0.140387049066,-0.140387049066,-0.140387049066,-0.155985610074,-0.155985610074,-0.171584171081,-0.171584171081,-0.187182732088,-0.187182732088,-0.202781293096,-0.202781293096,-0.218379854103,-0.218379854103,-0.218379854103,-0.23397841511,-0.23397841511,-0.23397841511,-0.249576976118,-0.249576976118,-0.265175537125,-0.265175537125,-0.280774098132,-0.280774098132,-0.29637265914,-0.29637265914,-0.29637265914,-0.311971220147,-0.311971220147,-0.327569781154,-0.327569781154,-0.327569781154,-0.343168342162,-0.343168342162,-0.358766903169,-0.358766903169,-0.358766903169,-0.374365464176,-0.374365464176,-0.389964025184,-0.389964025184,-0.405562586191,-0.405562586191,-0.405562586191,-0.421161147199,-0.421161147199,-0.436759708206,-0.436759708206,-0.452358269213,-0.452358269213,-0.452358269213,-0.467956830221,-0.467956830221,-0.483555391228,-0.483555391228,-0.483555391228,-0.499153952235,-0.499153952235,-0.499153952235,-0.514752513243,-0.514752513243,-0.53035107425,-0.53035107425,-0.545949635257,-0.545949635257,-0.561548196265,-0.561548196265,-0.561548196265,-0.577146757272,-0.577146757272,-0.577146757272,-0.592745318279,-0.592745318279,-0.608343879287,-0.608343879287,-0.608343879287,-0.623942440294,-0.623942440294,-0.639541001302,-0.639541001302,-0.639541001302,-0.655139562309,-0.655139562309,-0.655139562309,-0.670738123316,-0.670738123316,-0.686336684324,-0.686336684324,-0.686336684324,-0.686336684324,-0.701935245331,-0.701935245331,-0.717533806338,-0.717533806338,-0.717533806338,-0.733132367346,-0.733132367346,-0.733132367346,-0.748730928353,-0.748730928353,-0.748730928353,-0.76432948936,-0.76432948936,-0.779928050368,-0.779928050368,-0.779928050368,-0.795526611375,-0.795526611375,-0.811125172382,-0.811125172382,-0.811125172382,-0.82672373339,-0.82672373339,-0.82672373339,-0.842322294397,-0.842322294397,-0.842322294397,-0.857920855404,-0.857920855404,-0.857920855404,-0.873519416412,-0.873519416412,-0.889117977419,-0.889117977419,-0.889117977419,-0.904716538427,-0.904716538427,-0.904716538427,-0.920315099434,-0.920315099434,-0.935913660441,-0.935913660441,-0.935913660441,-0.951512221449,-0.951512221449,-0.951512221449,-0.951512221449,-0.967110782456,-0.967110782456,-0.967110782456,-0.982709343463,-0.982709343463,-0.998307904471,-0.998307904471,-0.998307904471,-1.01390646548,-1.01390646548,-1.02950502649,-1.02950502649,-1.02950502649,-1.04510358749,-1.04510358749,-1.04510358749,-1.04510358749,-1.0607021485,-1.0607021485,-1.0607021485,-1.07630070951,-1.07630070951,-1.07630070951,-1.09189927051,-1.09189927051,-1.09189927051,-1.10749783152,-1.10749783152,-1.10749783152,-1.12309639253,-1.12309639253,-1.12309639253,-1.13869495354,-1.13869495354,-1.13869495354,-1.15429351454,-1.15429351454,-1.15429351454,-1.16989207555,-1.16989207555,-1.16989207555,-1.18549063656,-1.18549063656,-1.18549063656,-1.20108919757,-1.20108919757,-1.20108919757,-1.21668775857,-1.21668775857,-1.21668775857,-1.23228631958,-1.23228631958,-1.23228631958,-1.23228631958,-1.24788488059,-1.24788488059,-1.24788488059,-1.2634834416,-1.2634834416,-1.2634834416,-1.2790820026,-1.2790820026,-1.2790820026,-1.2790820026,-1.2790820026,-1.29468056361,-1.29468056361,-1.29468056361,-1.29468056361,-1.29468056361,-1.29468056361,-1.29468056361,-1.29468056361,-1.29468056361,-1.29468056361,0.0,0.0,0.0,0.0,0.0,0.0,0.0,0.0,0.0,0.0,0.0,0.0,0.0,0.0,0.0,0.0,0.0,0.0,0.0,0.0,0.0,0.0,0.0,0.0,0.0,0.0,0.0,0.0,0.0,0.0,0.0,0.0,0.0,0.0
1.88742588189,1.87182732088,1.87182732088,1.85622875988,1.84063019887,1.84063019887,1.82503163786,1.82503163786,1.80943307685,1.79383451585,1.76263739383,1.73144027182,1.7002431498,1.68464458879,1.68464458879,1.66904602779,1.66904602779,1.65344746678,1.65344746678,1.63784890577,1.62225034476,1.60665178376,1.59105322275,1.57545466174,1.57545466174,1.55985610074,1.54425753973,1.52865897872,1.51306041771,1.49746185671,1.49746185671,1.4818632957,1.46626473469,1.45066617368,1.43506761268,1.41946905167,1.40387049066,1.40387049066,1.38827192965,1.37267336865,1.37267336865,1.35707480764,1.34147624663,1.32587768563,1.32587768563,1.31027912462,1.29468056361,1.2790820026,1.2790820026,1.2634834416,1.24788488059,1.23228631958,1.21668775857,1.21668775857,1.20108919757,1.18549063656,1.18549063656,1.16989207555,1.15429351454,1.15429351454,1.13869495354,1.13869495354,1.12309639253,1.10749783152,1.09189927051,1.07630070951,1.0607021485,1.0607021485,1.04510358749,1.02950502649,1.02950502649,1.01390646548,0.998307904471,0.998307904471,0.982709343463,0.967110782456,0.967110782456,0.951512221449,0.935913660441,0.920315099434,0.920315099434,0.904716538427,0.904716538427,0.889117977419,0.889117977419,0.873519416412,0.857920855404,0.842322294397,0.842322294397,0.82672373339,0.811125172382,0.795526611375,0.795526611375,0.779928050368,0.76432948936,0.76432948936,0.748730928353,0.748730928353,0.733132367346,0.733132367346,0.717533806338,0.701935245331,0.701935245331,0.686336684324,0.670738123316,0.655139562309,0.655139562309,0.639541001302,0.639541001302,0.623942440294,0.623942440294,0.608343879287,0.592745318279,0.592745318279,0.577146757272,0.577146757272,0.561548196265,0.561548196265,0.545949635257,0.545949635257,0.53035107425,0.514752513243,0.514752513243,0.499153952235,0.483555391228,0.483555391228,0.467956830221,0.452358269213,0.452358269213,0.436759708206,0.436759708206,0.421161147199,0.421161147199,0.405562586191,0.389964025184,0.389964025184,0.374365464176,0.374365464176,0.374365464176,0.358766903169,0.358766903169,0.343168342162,0.343168342162,0.327569781154,0.311971220147,0.311971220147,0.29637265914,0.29637265914,0.280774098132,0.280774098132,0.265175537125,0.265175537125,0.249576976118,0.23397841511,0.23397841511,0.218379854103,0.218379854103,0.218379854103,0.202781293096,0.187182732088,0.187182732088,0.171584171081,0.171584171081,0.155985610074,0.155985610074,0.140387049066,0.140387049066,0.124788488059,0.124788488059,0.109189927051,0.109189927051,0.0935913660441,0.0935913660441,0.0779928050368,0.0779928050368,0.0623942440294,0.0623942440294,0.0467956830221,0.0467956830221,0.0311971220147,0.0311971220147,0.0155985610074,0.0155985610074,0.0,0.0,-0.0155985610074,-0.0155985610074,-0.0311971220147,-0.0311971220147,-0.0467956830221,-0.0467956830221,-0.0467956830221,-0.0623942440294,-0.0623942440294,-0.0779928050368,-0.0779928050368,-0.0935913660441,-0.0935913660441,-0.109189927051,-0.109189927051,-0.124788488059,-0.124788488059,-0.140387049066,-0.140387049066,-0.140387049066,-0.155985610074,-0.155985610074,-0.171584171081,-0.171584171081,-0.187182732088,-0.187182732088,-0.202781293096,-0.202781293096,-0.218379854103,-0.218379854103,-0.218379854103,-0.23397841511,-0.23397841511,-0.23397841511,-0.249576976118,-0.249576976118,-0.265175537125,-0.265175537125,-0.280774098132,-0.280774098132,-0.29637265914,-0.29637265914,-0.29637265914,-0.311971220147,-0.311971220147,-0.327569781154,-0.327569781154,-0.327569781154,-0.343168342162,-0.343168342162,-0.358766903169,-0.358766903169,-0.358766903169,-0.374365464176,-0.374365464176,-0.389964025184,-0.389964025184,-0.389964025184,-0.405562586191,-0.405562586191,-0.421161147199,-0.421161147199,-0.436759708206,-0.436759708206,-0.452358269213,-0.452358269213,-0.452358269213,-0.467956830221,-0.467956830221,-0.483555391228,-0.483555391228,-0.483555391228,-0.499153952235,-0.499153952235,-0.499153952235,-0.514752513243,-0.514752513243,-0.53035107425,-0.53035107425,-0.545949635257,-0.545949635257,-0.561548196265,-0.561548196265,-0.561548196265,-0.577146757272,-0.577146757272,-0.577146757272,-0.592745318279,-0.592745318279,-0.608343879287,-0.608343879287,-0.608343879287,-0.623942440294,-0.623942440294,-0.623942440294,-0.639541001302,-0.639541001302,-0.639541001302,-0.655139562309,-0.655139562309,-0.670738123316,-0.670738123316,-0.670738123316,-0.686336684324,-0.686336684324,-0.686336684324,-0.701935245331,-0.701935245331,-0.701935245331,-0.717533806338,-0.717533806338,-0.717533806338,-0.733132367346,-0.733132367346,-0.748730928353,-0.748730928353,-0.748730928353,-0.76432948936,-0.76432948936,-0.76432948936,-0.779928050368,-0.779928050368,-0.795526611375,-0.795526611375,-0.795526611375,-0.811125172382,-0.811125172382,-0.82672373339,-0.82672373339,-0.82672373339,-0.842322294397,-0.842322294397,-0.842322294397,-0.842322294397,-0.857920855404,-0.857920855404,-0.873519416412,-0.873519416412,-0.889117977419,-0.889117977419,-0.889117977419,-0.904716538427,-0.904716538427,-0.904716538427,-0.920315099434,-0.920315099434,-0.935913660441,-0.935913660441,-0.935913660441,-0.935913660441,-0.951512221449,-0.951512221449,-0.951512221449,-0.967110782456,-0.967110782456,-0.967110782456,-0.982709343463,-0.982709343463,-0.998307904471,-0.998307904471,-0.998307904471,-1.01390646548,-1.01390646548,-1.02950502649,-1.02950502649,-1.02950502649,-1.02950502649,-1.04510358749,-1.04510358749,-1.04510358749,-1.0607021485,-1.0607021485,-1.0607021485,-1.07630070951,-1.07630070951,-1.07630070951,-1.09189927051,-1.09189927051,-1.09189927051,-1.09189927051,-1.10749783152,-1.10749783152,-1.12309639253,-1.12309639253,-1.12309639253,-1.13869495354,-1.13869495354,-1.13869495354,-1.15429351454,-1.15429351454,-1.15429351454,-1.16989207555,-1.16989207555,-1.16989207555,-1.18549063656,-1.18549063656,-1.18549063656,-1.20108919757,-1.20108919757,-1.20108919757,-1.21668775857,-1.21668775857,-1.21668775857,-1.23228631958,-1.23228631958,-1.23228631958,-1.23228631958,-1.24788488059,-1.24788488059,-1.24788488059,-1.2634834416,-1.2634834416,-1.2634834416,-1.2790820026,-1.2790820026,-1.2790820026,-1.2790820026,-1.2790820026,-1.2790820026,-1.29468056361,-1.29468056361,-1.29468056361,-1.29468056361,-1.29468056361,-1.29468056361,-1.29468056361,-1.29468056361,-1.29468056361,0.0,0.0,0.0,0.0,0.0,0.0,0.0,0.0,0.0,0.0,0.0,0.0,0.0,0.0,0.0,0.0,0.0,0.0,0.0,0.0,0.0,0.0,0.0,0.0,0.0,0.0,0.0,0.0,0.0,0.0,0.0,0.0,0.0,0.0
1.9030244429,1.88742588189,1.87182732088,1.85622875988,1.85622875988,1.84063019887,1.82503163786,1.82503163786,1.80943307685,1.79383451585,1.77823595484,1.74703883282,1.71584171081,1.7002431498,1.68464458879,1.66904602779,1.66904602779,1.66904602779,1.65344746678,1.63784890577,1.62225034476,1.60665178376,1.59105322275,1.59105322275,1.57545466174,1.55985610074,1.54425753973,1.52865897872,1.51306041771,1.51306041771,1.49746185671,1.4818632957,1.46626473469,1.46626473469,1.45066617368,1.43506761268,1.41946905167,1.40387049066,1.38827192965,1.37267336865,1.37267336865,1.35707480764,1.34147624663,1.32587768563,1.32587768563,1.31027912462,1.29468056361,1.29468056361,1.2790820026,1.2634834416,1.24788488059,1.23228631958,1.23228631958,1.21668775857,1.20108919757,1.20108919757,1.18549063656,1.16989207555,1.16989207555,1.15429351454,1.13869495354,1.13869495354,1.12309639253,1.10749783152,1.09189927051,1.07630070951,1.07630070951,1.0607021485,1.04510358749,1.02950502649,1.02950502649,1.01390646548,0.998307904471,0.998307904471,0.982709343463,0.967110782456,0.967110782456,0.951512221449,0.935913660441,0.935913660441,0.920315099434,0.920315099434,0.904716538427,0.889117977419,0.889117977419,0.873519416412,0.857920855404,0.842322294397,0.842322294397,0.82672373339,0.811125172382,0.811125172382,0.795526611375,0.779928050368,0.779928050368,0.76432948936,0.76432948936,0.748730928353,0.733132367346,0.733132367346,0.717533806338,0.717533806338,0.701935245331,0.686336684324,0.670738123316,0.670738123316,0.655139562309,0.639541001302,0.639541001302,0.623942440294,0.623942440294,0.608343879287,0.608343879287,0.592745318279,0.577146757272,0.577146757272,0.561548196265,0.561548196265,0.545949635257,0.545949635257,0.53035107425,0.514752513243,0.514752513243,0.499153952235,0.483555391228,0.483555391228,0.467956830221,0.467956830221,0.452358269213,0.452358269213,0.436759708206,0.421161147199,0.421161147199,0.405562586191,0.405562586191,0.389964025184,0.389964025184,0.374365464176,0.374365464176,0.358766903169,0.358766903169,0.343168342162,0.343168342162,0.327569781154,0.327569781154,0.311971220147,0.29637265914,0.29637265914,0.280774098132,0.280774098132,0.265175537125,0.265175537125,0.249576976118,0.249576976118,0.23397841511,0.23397841511,0.218379854103,0.218379854103,0.202781293096,0.202781293096,0.187182732088,0.171584171081,0.171584171081,0.155985610074,0.155985610074,0.140387049066,0.140387049066,0.124788488059,0.124788488059,0.109189927051,0.109189927051,0.0935913660441,0.0935913660441,0.0779928050368,0.0779928050368,0.0623942440294,0.0623942440294,0.0467956830221,0.0467956830221,0.0311971220147,0.0311971220147,0.0155985610074,0.0155985610074,0.0,0.0,-0.0155985610074,-0.0155985610074,-0.0311971220147,-0.0311971220147,-0.0311971220147,-0.0467956830221,-0.0467956830221,-0.0623942440294,-0.0623942440294,-0.0779928050368,-0.0779928050368,-0.0935913660441,-0.0935913660441,-0.109189927051,-0.109189927051,-0.109189927051,-0.124788488059,-0.124788488059,-0.140387049066,-0.140387049066,-0.155985610074,-0.155985610074,-0.171584171081,-0.171584171081,-0.187182732088,-0.187182732088,-0.187182732088,-0.202781293096,-0.202781293096,-0.218379854103,-0.218379854103,-0.23397841511,-0.23397841511,-0.23397841511,-0.249576976118,-0.249576976118,-0.265175537125,-0.265175537125,-0.280774098132,-0.280774098132,-0.280774098132,-0.29637265914,-0.29637265914,-0.311971220147,-0.311971220147,-0.311971220147,-0.327569781154,-0.327569781154,-0.343168342162,-0.343168342162,-0.358766903169,-0.358766903169,-0.358766903169,-0.374365464176,-0.374365464176,-0.389964025184,-0.389964025184,-0.389964025184,-0.405562586191,-0.405562586191,-0.421161147199,-0.421161147199,-0.436759708206,-0.436759708206,-0.452358269213,-0.452358269213,-0.452358269213,-0.467956830221,-0.467956830221,-0.467956830221,-0.483555391228,-0.483555391228,-0.483555391228,-0.499153952235,-0.499153952235,-0.514752513243,-0.514752513243,-0.53035107425,-0.53035107425,-0.545949635257,-0.545949635257,-0.561548196265,-0.561548196265,-0.561548196265,-0.577146757272,-0.577146757272,-0.577146757272,-0.592745318279,-0.592745318279,-0.608343879287,-0.608343879287,-0.608343879287,-0.623942440294,-0.623942440294,-0.623942440294,-0.639541001302,-0.639541001302,-0.639541001302,-0.655139562309,-0.655139562309,-0.670738123316,-0.670738123316,-0.670738123316,-0.686336684324,-0.686336684324,-0.686336684324,-0.701935245331,-0.701935245331,-0.701935245331,-0.717533806338,-0.717533806338,-0.717533806338,-0.733132367346,-0.733132367346,-0.733132367346,-0.748730928353,-0.748730928353,-0.76432948936,-0.76432948936,-0.76432948936,-0.779928050368,-0.779928050368,-0.795526611375,-0.795526611375,-0.795526611375,-0.811125172382,-0.811125172382,-0.82672373339,-0.82672373339,-0.82672373339,-0.842322294397,-0.842322294397,-0.842322294397,-0.842322294397,-0.857920855404,-0.857920855404,-0.873519416412,-0.873519416412,-0.873519416412,-0.889117977419,-0.889117977419,-0.904716538427,-0.904716538427,-0.904716538427,-0.920315099434,-0.920315099434,-0.920315099434,-0.935913660441,-0.935913660441,-0.935913660441,-0.951512221449,-0.951512221449,-0.951512221449,-0.967110782456,-0.967110782456,-0.967110782456,-0.982709343463,-0.982709343463,-0.998307904471,-0.998307904471,-0.998307904471,-1.01390646548,-1.01390646548,-1.01390646548,-1.02950502649,-1.02950502649,-1.02950502649,-1.04510358749,-1.04510358749,-1.04510358749,-1.0607021485,-1.0607021485,-1.0607021485,-1.07630070951,-1.07630070951,-1.07630070951,-1.09189927051,-1.09189927051,-1.09189927051,-1.09189927051,-1.10749783152,-1.10749783152,-1.10749783152,-1.12309639253,-1.12309639253,-1.13869495354,-1.13869495354,-1.13869495354,-1.15429351454,-1.15429351454,-1.15429351454,-1.16989207555,-1.16989207555,-1.16989207555,-1.18549063656,-1.18549063656,-1.18549063656,-1.20108919757,-1.20108919757,-1.20108919757,-1.21668775857,-1.21668775857,-1.21668775857,-1.21668775857,-1.23228631958,-1.23228631958,-1.23228631958,-1.24788488059,-1.24788488059,-1.24788488059,-1.2634834416,-1.2634834416,-1.2634834416,-1.2790820026,-1.2790820026,-1.2790820026,-1.2790820026,-1.2790820026,-1.2790820026,-1.29468056361,-1.29468056361,-1.29468056361,-1.29468056361,-1.29468056361,-1.29468056361,-1.29468056361,-1.29468056361,-1.29468056361,0.0,0.0,0.0,0.0,0.0,0.0,0.0,0.0,0.0,0.0,0.0,0.0,0.0,0.0,0.0,0.0,0.0,0.0,0.0,0.0,0.0,0.0,0.0,0.0,0.0,0.0,0.0,0.0,0.0,0.0,0.0,0.0,0.0,0.0
