0.0,0.0,0.0,0.0,0.0,0.0,0.0,0.0,0.0,0.0,0.0,0.0,0.0,0.0,0.0,0.0,0.0,0.0,0.0,0.0,0.0,0.0,0.0,0.0,0.0,0.0,0.0,0.0,0.0,0.0,0.0,0.0,0.0,0.0,0.0,0.0,0.0,0.0,0.0,0.0,0.0,0.0,0.0,0.0,0.0,0.0,0.0,0.0,0.0,0.0,0.0,0.0,0.0,0.0,0.0,0.0,0.0,0.0,0.0,2.39859341007,2.38311861388,0.0,0.0,0.0,0.0,0.0,0.0,0.0,2.25932024433,2.24384544813,2.22837065194,2.21289585575,2.19742105955,2.18194626336,2.16647146716,2.15099667097,2.13552187478,2.12004707858,2.12004707858,2.10457228239,2.10457228239,2.10457228239,2.08909748619,2.07362269,2.04267309761,2.01172350522,1.99624870903,1.96529911664,1.96529911664,1.94982432045,1.94982432045,1.93434952425,1.91887472806,1.90339993187,1.88792513567,1.87245033948,1.84150074709,1.84150074709,1.8260259509,1.8105511547,1.8105511547,1.79507635851,1.79507635851,1.77960156231,1.76412676612,1.74865196993,1.73317717373,1.71770237754,1.70222758134,1.68675278515,1.67127798896,1.65580319276,1.64032839657,1.64032839657,1.62485360037,1.60937880418,1.60937880418,1.59390400799,1.57842921179,1.5629544156,1.5474796194,1.53200482321,1.51653002702,1.50105523082,1.50105523082,1.48558043463,1.47010563843,1.47010563843,1.45463084224,1.43915604604,1.42368124985,1.42368124985,1.40820645366,1.39273165746,1.39273165746,1.37725686127,1.36178206507,1.36178206507,1.34630726888,1.33083247269,1.31535767649,1.2998828803,1.2844080841,1.26893328791,1.26893328791,1.25345849172,1.25345849172,1.23798369552,1.22250889933,1.20703410313,1.19155930694,1.17608451075,1.17608451075,1.16060971455,1.16060971455,1.14513491836,1.14513491836,1.12966012216,1.11418532597,1.09871052978,1.09871052978,1.08323573358,1.06776093739,1.06776093739,1.05228614119,1.05228614119,1.036811345,1.02133654881,1.02133654881,1.00586175261,0.990386956418,0.974912160224,0.95943736403,0.95943736403,0.943962567836,0.928487771642,0.913012975448,0.913012975448,0.897538179254,0.897538179254,0.88206338306,0.88206338306,0.866588586866,0.866588586866,0.851113790672,0.835638994478,0.820164198284,0.820164198284,0.80468940209,0.789214605896,0.789214605896,0.773739809702,0.773739809702,0.758265013508,0.758265013508,0.742790217313,0.727315421119,0.727315421119,0.711840624925,0.696365828731,0.696365828731,0.680891032537,0.680891032537,0.665416236343,0.665416236343,0.649941440149,0.649941440149,0.634466643955,0.634466643955,0.618991847761,0.603517051567,0.588042255373,0.588042255373,0.572567459179,0.572567459179,0.557092662985,0.557092662985,0.541617866791,0.541617866791,0.526143070597,0.526143070597,0.510668274403,0.510668274403,0.495193478209,0.479718682015,0.479718682015,0.464243885821,0.448769089627,0.448769089627,0.433294293433,0.433294293433,0.417819497239,0.417819497239,0.402344701045,0.402344701045,0.386869904851,0.386869904851,0.371395108657,0.355920312463,0.355920312463,0.340445516269,0.340445516269,0.324970720075,0.324970720075,0.309495923881,0.309495923881,0.309495923881,0.294021127687,0.294021127687,0.278546331493,0.278546331493,0.263071535299,0.263071535299,0.247596739104,0.247596739104,0.23212194291,0.216647146716,0.216647146716,0.201172350522,0.201172350522,0.185697554328,0.185697554328,0.170222758134,0.170222758134,0.170222758134,0.15474796194,0.15474796194,0.139273165746,0.139273165746,0.123798369552,0.123798369552,0.108323573358,0.108323573358,0.0928487771642,0.0928487771642,0.0773739809702,0.0773739809702,0.0618991847761,0.0618991847761,0.0464243885821,0.0464243885821,0.0309495923881,0.0309495923881,0.0309495923881,0.015474796194,0.015474796194,0.0,0.0,-0.015474796194,-0.015474796194,-0.0309495923881,-0.0309495923881,-0.0309495923881,-0.0464243885821,-0.0464243885821,-0.0618991847761,-0.0618991847761,-0.0773739809702,-0.0773739809702,-0.0928487771642,-0.0928487771642,-0.108323573358,-0.108323573358,-0.123798369552,-0.123798369552,-0.123798369552,-0.139273165746,-0.139273165746,-0.15474796194,-0.15474796194,-0.170222758134,-0.170222758134,-0.170222758134,-0.185697554328,-0.185697554328,-0.201172350522,-0.201172350522,-0.216647146716,-0.216647146716,-0.216647146716,-0.23212194291,-0.23212194291,-0.23212194291,-0.247596739104,-0.247596739104,-0.263071535299,-0.263071535299,-0.278546331493,-0.278546331493,-0.278546331493,-0.294021127687,-0.294021127687,-0.294021127687,-0.309495923881,-0.309495923881,-0.324970720075,-0.324970720075,-0.340445516269,-0.340445516269,-0.355920312463,-0.355920312463,-0.371395108657,-0.371395108657,-0.386869904851,-0.386869904851,-0.386869904851,-0.402344701045,-0.402344701045,-0.402344701045,-0.417819497239,-0.417819497239,-0.417819497239,-0.433294293433,-0.433294293433,-0.448769089627,-0.448769089627,-0.464243885821,-0.464243885821,-0.464243885821,-0.479718682015,-0.479718682015,-0.479718682015,-0.495193478209,-0.495193478209,-0.510668274403,-0.510668274403,-0.510668274403,-0.526143070597,-0.526143070597,-0.526143070597,-0.541617866791,-0.541617866791,-0.557092662985,-0.557092662985,-0.572567459179,-0.572567459179,-0.572567459179,-0.588042255373,-0.588042255373,-0.588042255373,-0.603517051567,-0.603517051567,-0.603517051567,-0.618991847761,-0.618991847761,-0.634466643955,-0.634466643955,-0.634466643955,-0.649941440149,-0.649941440149,-0.649941440149,-0.665416236343,-0.665416236343,-0.665416236343,-0.680891032537,-0.680891032537,-0.696365828731,-0.696365828731,-0.696365828731,-0.711840624925,-0.711840624925,-0.727315421119,-0.727315421119,-0.742790217313,-0.742790217313,-0.742790217313,-0.742790217313,-0.758265013508,-0.758265013508,-0.758265013508,-0.773739809702,-0.773739809702,-0.773739809702,-0.789214605896,-0.789214605896,-0.789214605896,-0.80468940209,-0.80468940209,-0.820164198284,-0.820164198284,-0.820164198284,-0.835638994478,-0.835638994478,-0.851113790672,-0.851113790672,-0.851113790672,-0.866588586866,-0.866588586866,-0.866588586866,-0.88206338306,-0.88206338306,-0.897538179254,-0.897538179254,-0.897538179254,-0.913012975448,-0.913012975448,-0.913012975448,-0.928487771642,-0.928487771642,-0.928487771642,-0.943962567836,-0.943962567836,-0.943962567836,-0.95943736403,-0.95943736403
0.0,0.0,0.0,0.0,0.0,0.0,0.0,0.0,0.0,0.0,0.0,0.0,0.0,0.0,0.0,0.0,0.0,0.0,0.0,0.0,0.0,0.0,0.0,0.0,0.0,0.0,0.0,0.0,0.0,0.0,0.0,0.0,0.0,0.0,0.0,0.0,0.0,0.0,0.0,0.0,0.0,0.0,0.0,0.0,0.0,0.0,0.0,0.0,0.0,0.0,0.0,0.0,0.0,0.0,0.0,0.0,0.0,0.0,0.0,0.0,0.0,0.0,0.0,0.0,0.0,0.0,0.0,0.0,2.27479504052,2.24384544813,2.22837065194,2.21289585575,2.19742105955,2.18194626336,2.16647146716,2.15099667097,2.13552187478,2.13552187478,2.12004707858,2.12004707858,2.10457228239,2.10457228239,2.08909748619,2.07362269,2.05814789381,2.02719830142,1.99624870903,1.98077391284,1.96529911664,1.94982432045,1.94982432045,1.93434952425,1.93434952425,1.91887472806,1.88792513567,1.87245033948,1.85697554328,1.84150074709,1.8260259509,1.8105511547,1.8105511547,1.79507635851,1.79507635851,1.77960156231,1.76412676612,1.74865196993,1.73317717373,1.71770237754,1.70222758134,1.68675278515,1.67127798896,1.65580319276,1.65580319276,1.64032839657,1.62485360037,1.60937880418,1.60937880418,1.59390400799,1.57842921179,1.5629544156,1.5629544156,1.5474796194,1.53200482321,1.51653002702,1.50105523082,1.48558043463,1.48558043463,1.47010563843,1.45463084224,1.45463084224,1.43915604604,1.42368124985,1.40820645366,1.39273165746,1.39273165746,1.37725686127,1.36178206507,1.34630726888,1.33083247269,1.31535767649,1.2998828803,1.2998828803,1.2844080841,1.26893328791,1.26893328791,1.25345849172,1.25345849172,1.23798369552,1.22250889933,1.20703410313,1.19155930694,1.17608451075,1.17608451075,1.16060971455,1.16060971455,1.14513491836,1.14513491836,1.12966012216,1.11418532597,1.11418532597,1.09871052978,1.08323573358,1.06776093739,1.06776093739,1.05228614119,1.05228614119,1.036811345,1.036811345,1.02133654881,1.00586175261,0.990386956418,0.974912160224,0.95943736403,0.95943736403,0.943962567836,0.928487771642,0.928487771642,0.913012975448,0.897538179254,0.897538179254,0.88206338306,0.88206338306,0.866588586866,0.866588586866,0.851113790672,0.835638994478,0.835638994478,0.820164198284,0.80468940209,0.80468940209,0.789214605896,0.789214605896,0.773739809702,0.773739809702,0.758265013508,0.742790217313,0.727315421119,0.727315421119,0.711840624925,0.696365828731,0.696365828731,0.680891032537,0.680891032537,0.665416236343,0.665416236343,0.649941440149,0.649941440149,0.634466643955,0.634466643955,0.618991847761,0.603517051567,0.603517051567,0.588042255373,0.588042255373,0.572567459179,0.557092662985,0.557092662985,0.541617866791,0.541617866791,0.526143070597,0.526143070597,0.510668274403,0.510668274403,0.495193478209,0.495193478209,0.479718682015,0.464243885821,0.448769089627,0.448769089627,0.433294293433,0.433294293433,0.433294293433,0.417819497239,0.417819497239,0.402344701045,0.402344701045,0.386869904851,0.371395108657,0.371395108657,0.355920312463,0.355920312463,0.340445516269,0.340445516269,0.324970720075,0.324970720075,0.309495923881,0.309495923881,0.294021127687,0.294021127687,0.278546331493,0.278546331493,0.263071535299,0.263071535299,0.247596739104,0.247596739104,0.23212194291,0.216647146716,0.216647146716,0.201172350522,0.201172350522,0.185697554328,0.185697554328,0.170222758134,0.170222758134,0.170222758134,0.15474796194,0.15474796194,0.139273165746,0.139273165746,0.123798369552,0.123798369552,0.123798369552,0.108323573358,0.0928487771642,0.0928487771642,0.0773739809702,0.0773739809702,0.0618991847761,0.0618991847761,0.0464243885821,0.0464243885821,0.0464243885821,0.0309495923881,0.0309495923881,0.015474796194,0.015474796194,0.0,0.0,-0.015474796194,-0.015474796194,-0.0309495923881,-0.0309495923881,-0.0309495923881,-0.0464243885821,-0.0464243885821,-0.0618991847761,-0.0618991847761,-0.0773739809702,-0.0773739809702,-0.0928487771642,-0.0928487771642,-0.108323573358,-0.108323573358,-0.108323573358,-0.123798369552,-0.123798369552,-0.139273165746,-0.139273165746,-0.15474796194,-0.15474796194,-0.15474796194,-0.170222758134,-0.170222758134,-0.185697554328,-0.185697554328,-0.201172350522,-0.201172350522,-0.216647146716,-0.216647146716,-0.216647146716,-0.23212194291,-0.23212194291,-0.23212194291,-0.247596739104,-0.247596739104,-0.263071535299,-0.263071535299,-0.278546331493,-0.278546331493,-0.278546331493,-0.294021127687,-0.294021127687,-0.294021127687,-0.309495923881,-0.309495923881,-0.324970720075,-0.324970720075,-0.340445516269,-0.340445516269,-0.355920312463,-0.355920312463,-0.371395108657,-0.371395108657,-0.386869904851,-0.386869904851,-0.386869904851,-0.402344701045,-0.402344701045,-0.402344701045,-0.417819497239,-0.417819497239,-0.417819497239,-0.433294293433,-0.433294293433,-0.448769089627,-0.448769089627,-0.464243885821,-0.464243885821,-0.464243885821,-0.479718682015,-0.479718682015,-0.479718682015,-0.495193478209,-0.495193478209,-0.510668274403,-0.510668274403,-0.510668274403,-0.526143070597,-0.526143070597,-0.526143070597,-0.541617866791,-0.541617866791,-0.557092662985,-0.557092662985,-0.572567459179,-0.572567459179,-0.572567459179,-0.588042255373,-0.588042255373,-0.588042255373,-0.603517051567,-0.603517051567,-0.603517051567,-0.618991847761,-0.618991847761,-0.634466643955,-0.634466643955,-0.634466643955,-0.649941440149,-0.649941440149,-0.649941440149,-0.665416236343,-0.665416236343,-0.665416236343,-0.680891032537,-0.680891032537,-0.696365828731,-0.696365828731,-0.696365828731,-0.711840624925,-0.711840624925,-0.727315421119,-0.727315421119,-0.742790217313,-0.742790217313,-0.742790217313,-0.742790217313,-0.758265013508,-0.758265013508,-0.758265013508,-0.758265013508,-0.773739809702,-0.773739809702,-0.789214605896,-0.789214605896,-0.789214605896,-0.80468940209,-0.80468940209,-0.820164198284,-0.820164198284,-0.820164198284,-0.835638994478,-0.835638994478,-0.835638994478,-0.851113790672,-0.851113790672,-0.866588586866,-0.866588586866,-0.866588586866,-0.88206338306,-0.88206338306,-0.88206338306,-0.897538179254,-0.897538179254,-0.897538179254,-0.913012975448,-0.913012975448,-0.928487771642,-0.928487771642,-0.928487771642,-0.943962567836,-0.943962567836,-0.943962567836,-0.95943736403,-0.95943736403
0.0,0.0,0.0,0.0,0.0,0.0,0.0,0.0,0.0,0.0,0.0,0.0,0.0,0.0,0.0,0.0,0.0,0.0,0.0,0.0,0.0,0.0,0.0,0.0,0.0,0.0,0.0,0.0,0.0,0.0,0.0,0.0,0.0,0.0,0.0,0.0,0.0,0.0,0.0,0.0,0.0,0.0,0.0,0.0,0.0,0.0,0.0,0.0,0.0,0.0,0.0,0.0,0.0,0.0,0.0,0.0,0.0,0.0,0.0,0.0,0.0,0.0,0.0,0.0,0.0,0.0,0.0,0.0,0.0,2.24384544813,2.22837065194,2.21289585575,2.19742105955,2.18194626336,2.16647146716,2.16647146716,2.15099667097,2.13552187478,2.12004707858,2.12004707858,2.12004707858,2.10457228239,2.08909748619,2.08909748619,2.05814789381,2.02719830142,1.99624870903,1.98077391284,1.96529911664,1.96529911664,1.94982432045,1.94982432045,1.93434952425,1.91887472806,1.88792513567,1.87245033948,1.85697554328,1.84150074709,1.8260259509,1.8260259509,1.8105511547,1.79507635851,1.79507635851,1.77960156231,1.76412676612,1.74865196993,1.73317717373,1.71770237754,1.70222758134,1.68675278515,1.68675278515,1.67127798896,1.65580319276,1.64032839657,1.62485360037,1.60937880418,1.60937880418,1.59390400799,1.57842921179,1.57842921179,1.5629544156,1.5474796194,1.53200482321,1.51653002702,1.50105523082,1.50105523082,1.48558043463,1.47010563843,1.47010563843,1.45463084224,1.43915604604,1.42368124985,1.40820645366,1.40820645366,1.39273165746,1.37725686127,1.36178206507,1.34630726888,1.33083247269,1.31535767649,1.2998828803,1.2998828803,1.2844080841,1.26893328791,1.26893328791,1.25345849172,1.25345849172,1.23798369552,1.22250889933,1.20703410313,1.19155930694,1.17608451075,1.17608451075,1.16060971455,1.16060971455,1.14513491836,1.14513491836,1.12966012216,1.12966012216,1.11418532597,1.09871052978,1.08323573358,1.08323573358,1.06776093739,1.06776093739,1.05228614119,1.036811345,1.036811345,1.02133654881,1.00586175261,0.990386956418,0.974912160224,0.95943736403,0.95943736403,0.943962567836,0.928487771642,0.928487771642,0.913012975448,0.897538179254,0.897538179254,0.88206338306,0.88206338306,0.866588586866,0.866588586866,0.851113790672,0.835638994478,0.835638994478,0.820164198284,0.80468940209,0.80468940209,0.789214605896,0.789214605896,0.773739809702,0.773739809702,0.758265013508,0.742790217313,0.742790217313,0.727315421119,0.711840624925,0.696365828731,0.696365828731,0.680891032537,0.680891032537,0.680891032537,0.665416236343,0.665416236343,0.649941440149,0.634466643955,0.634466643955,0.618991847761,0.603517051567,0.603517051567,0.588042255373,0.588042255373,0.572567459179,0.572567459179,0.557092662985,0.541617866791,0.541617866791,0.526143070597,0.526143070597,0.510668274403,0.510668274403,0.495193478209,0.495193478209,0.479718682015,0.464243885821,0.448769089627,0.448769089627,0.433294293433,0.433294293433,0.433294293433,0.417819497239,0.417819497239,0.402344701045,0.402344701045,0.386869904851,0.371395108657,0.371395108657,0.355920312463,0.355920312463,0.340445516269,0.340445516269,0.324970720075,0.324970720075,0.309495923881,0.309495923881,0.294021127687,0.294021127687,0.278546331493,0.278546331493,0.278546331493,0.263071535299,0.247596739104,0.247596739104,0.23212194291,0.23212194291,0.216647146716,0.201172350522,0.201172350522,0.185697554328,0.185697554328,0.185697554328,0.170222758134,0.170222758134,0.15474796194,0.15474796194,0.139273165746,0.139273165746,0.139273165746,0.123798369552,0.123798369552,0.108323573358,0.108323573358,0.0928487771642,0.0773739809702,0.0773739809702,0.0618991847761,0.0618991847761,0.0618991847761,0.0464243885821,0.0464243885821,0.0464243885821,0.0309495923881,0.0309495923881,0.015474796194,0.015474796194,0.0,-0.015474796194,-0.015474796194,-0.015474796194,-0.0309495923881,-0.0309495923881,-0.0464243885821,-0.0464243885821,-0.0618991847761,-0.0618991847761,-0.0773739809702,-0.0773739809702,-0.0928487771642,-0.0928487771642,-0.108323573358,-0.108323573358,-0.108323573358,-0.123798369552,-0.123798369552,-0.139273165746,-0.139273165746,-0.15474796194,-0.15474796194,-0.15474796194,-0.170222758134,-0.170222758134,-0.185697554328,-0.185697554328,-0.201172350522,-0.201172350522,-0.216647146716,-0.216647146716,-0.216647146716,-0.23212194291,-0.23212194291,-0.23212194291,-0.247596739104,-0.247596739104,-0.263071535299,-0.263071535299,-0.278546331493,-0.278546331493,-0.278546331493,-0.294021127687,-0.294021127687,-0.294021127687,-0.309495923881,-0.309495923881,-0.324970720075,-0.324970720075,-0.340445516269,-0.340445516269,-0.355920312463,-0.355920312463,-0.371395108657,-0.371395108657,-0.386869904851,-0.386869904851,-0.386869904851,-0.402344701045,-0.402344701045,-0.402344701045,-0.402344701045,-0.417819497239,-0.417819497239,-0.433294293433,-0.433294293433,-0.448769089627,-0.448769089627,-0.464243885821,-0.464243885821,-0.464243885821,-0.479718682015,-0.479718682015,-0.479718682015,-0.495193478209,-0.495193478209,-0.495193478209,-0.510668274403,-0.510668274403,-0.510668274403,-0.526143070597,-0.526143070597,-0.541617866791,-0.541617866791,-0.557092662985,-0.557092662985,-0.572567459179,-0.572567459179,-0.572567459179,-0.588042255373,-0.588042255373,-0.588042255373,-0.588042255373,-0.603517051567,-0.603517051567,-0.618991847761,-0.618991847761,-0.618991847761,-0.634466643955,-0.634466643955,-0.649941440149,-0.649941440149,-0.649941440149,-0.665416236343,-0.665416236343,-0.665416236343,-0.680891032537,-0.680891032537,-0.680891032537,-0.696365828731,-0.696365828731,-0.711840624925,-0.711840624925,-0.727315421119,-0.727315421119,-0.742790217313,-0.742790217313,-0.742790217313,-0.742790217313,-0.758265013508,-0.758265013508,-0.758265013508,-0.758265013508,-0.773739809702,-0.773739809702,-0.789214605896,-0.789214605896,-0.789214605896,-0.80468940209,-0.80468940209,-0.820164198284,-0.820164198284,-0.820164198284,-0.835638994478,-0.835638994478,-0.835638994478,-0.851113790672,-0.851113790672,-0.851113790672,-0.866588586866,-0.866588586866,-0.88206338306,-0.88206338306,-0.88206338306,-0.897538179254,-0.897538179254,-0.897538179254,-0.913012975448,-0.913012975448,-0.913012975448,-0.928487771642,-0.928487771642,-0.943962567836,-0.943962567836,-0.943962567836,-0.943962567836,-0.95943736403
0.0,0.0,0.0,0.0,0.0,0.0,0.0,0.0,0.0,0.0,0.0,0.0,0.0,0.0,0.0,0.0,0.0,0.0,0.0,0.0,0.0,0.0,0.0,0.0,0.0,0.0,0.0,0.0,0.0,0.0,0.0,0.0,0.0,0.0,0.0,0.0,0.0,0.0,0.0,0.0,0.0,0.0,0.0,0.0,0.0,0.0,0.0,0.0,0.0,0.0,0.0,0.0,0.0,0.0,0.0,0.0,0.0,0.0,0.0,0.0,0.0,0.0,0.0,0.0,0.0,0.0,0.0,0.0,0.0,0.0,0.0,2.21289585575,2.21289585575,0.0,0.0,2.16647146716,2.15099667097,2.15099667097,2.13552187478,2.12004707858,2.12004707858,2.10457228239,2.10457228239,2.08909748619,2.07362269,2.04267309761,2.01172350522,1.98077391284,1.96529911664,1.96529911664,1.94982432045,1.94982432045,1.93434952425,1.91887472806,1.90339993187,1.87245033948,1.85697554328,1.84150074709,1.84150074709,1.8260259509,1.8105511547,1.79507635851,1.79507635851,1.77960156231,1.76412676612,1.74865196993,1.73317717373,1.71770237754,1.70222758134,1.68675278515,1.67127798896,1.65580319276,1.65580319276,1.64032839657,1.62485360037,1.60937880418,1.60937880418,1.59390400799,1.59390400799,1.57842921179,1.5629544156,1.5474796194,1.53200482321,1.51653002702,1.51653002702,1.50105523082,1.48558043463,1.47010563843,1.47010563843,1.45463084224,1.43915604604,1.42368124985,1.40820645366,1.40820645366,1.39273165746,1.37725686127,1.36178206507,1.34630726888,1.33083247269,1.31535767649,1.31535767649,1.2998828803,1.2844080841,1.26893328791,1.26893328791,1.25345849172,1.25345849172,1.23798369552,1.22250889933,1.20703410313,1.19155930694,1.17608451075,1.17608451075,1.16060971455,1.16060971455,1.14513491836,1.14513491836,1.12966012216,1.12966012216,1.11418532597,1.09871052978,1.08323573358,1.08323573358,1.06776093739,1.06776093739,1.05228614119,1.036811345,1.036811345,1.02133654881,1.00586175261,0.990386956418,0.974912160224,0.974912160224,0.95943736403,0.943962567836,0.943962567836,0.928487771642,0.913012975448,0.913012975448,0.897538179254,0.88206338306,0.88206338306,0.866588586866,0.866588586866,0.851113790672,0.851113790672,0.835638994478,0.820164198284,0.80468940209,0.80468940209,0.789214605896,0.789214605896,0.773739809702,0.773739809702,0.758265013508,0.758265013508,0.742790217313,0.727315421119,0.711840624925,0.711840624925,0.696365828731,0.680891032537,0.680891032537,0.680891032537,0.665416236343,0.665416236343,0.649941440149,0.634466643955,0.634466643955,0.618991847761,0.603517051567,0.603517051567,0.588042255373,0.588042255373,0.572567459179,0.572567459179,0.557092662985,0.557092662985,0.541617866791,0.526143070597,0.526143070597,0.510668274403,0.510668274403,0.495193478209,0.495193478209,0.479718682015,0.464243885821,0.448769089627,0.448769089627,0.433294293433,0.433294293433,0.433294293433,0.417819497239,0.417819497239,0.402344701045,0.402344701045,0.386869904851,0.386869904851,0.371395108657,0.355920312463,0.355920312463,0.340445516269,0.340445516269,0.324970720075,0.324970720075,0.309495923881,0.309495923881,0.294021127687,0.294021127687,0.278546331493,0.278546331493,0.278546331493,0.263071535299,0.263071535299,0.247596739104,0.23212194291,0.23212194291,0.216647146716,0.201172350522,0.201172350522,0.185697554328,0.185697554328,0.185697554328,0.170222758134,0.170222758134,0.15474796194,0.15474796194,0.15474796194,0.139273165746,0.139273165746,0.123798369552,0.123798369552,0.108323573358,0.108323573358,0.0928487771642,0.0773739809702,0.0773739809702,0.0773739809702,0.0618991847761,0.0618991847761,0.0464243885821,0.0464243885821,0.0464243885821,0.0309495923881,0.0309495923881,0.015474796194,0.015474796194,0.0,0.0,-0.015474796194,-0.015474796194,-0.0309495923881,-0.0309495923881,-0.0464243885821,-0.0464243885821,-0.0618991847761,-0.0618991847761,-0.0773739809702,-0.0773739809702,-0.0928487771642,-0.0928487771642,-0.0928487771642,-0.108323573358,-0.108323573358,-0.123798369552,-0.123798369552,-0.139273165746,-0.139273165746,-0.139273165746,-0.15474796194,-0.15474796194,-0.170222758134,-0.170222758134,-0.185697554328,-0.185697554328,-0.201172350522,-0.201172350522,-0.201172350522,-0.216647146716,-0.216647146716,-0.23212194291,-0.23212194291,-0.23212194291,-0.247596739104,-0.247596739104,-0.263071535299,-0.263071535299,-0.278546331493,-0.278546331493,-0.278546331493,-0.294021127687,-0.294021127687,-0.294021127687,-0.309495923881,-0.309495923881,-0.324970720075,-0.324970720075,-0.340445516269,-0.340445516269,-0.355920312463,-0.355920312463,-0.371395108657,-0.371395108657,-0.386869904851,-0.386869904851,-0.386869904851,-0.402344701045,-0.402344701045,-0.402344701045,-0.402344701045,-0.417819497239,-0.417819497239,-0.433294293433,-0.433294293433,-0.448769089627,-0.448769089627,-0.464243885821,-0.464243885821,-0.464243885821,-0.479718682015,-0.479718682015,-0.479718682015,-0.479718682015,-0.495193478209,-0.495193478209,-0.510668274403,-0.510668274403,-0.510668274403,-0.526143070597,-0.526143070597,-0.541617866791,-0.541617866791,-0.557092662985,-0.557092662985,-0.557092662985,-0.572567459179,-0.572567459179,-0.572567459179,-0.588042255373,-0.588042255373,-0.588042255373,-0.603517051567,-0.603517051567,-0.618991847761,-0.618991847761,-0.618991847761,-0.634466643955,-0.634466643955,-0.634466643955,-0.649941440149,-0.649941440149,-0.649941440149,-0.665416236343,-0.665416236343,-0.680891032537,-0.680891032537,-0.680891032537,-0.696365828731,-0.696365828731,-0.711840624925,-0.711840624925,-0.727315421119,-0.727315421119,-0.742790217313,-0.742790217313,-0.742790217313,-0.742790217313,-0.758265013508,-0.758265013508,-0.758265013508,-0.758265013508,-0.773739809702,-0.773739809702,-0.789214605896,-0.789214605896,-0.789214605896,-0.80468940209,-0.80468940209,-0.80468940209,-0.820164198284,-0.820164198284,-0.835638994478,-0.835638994478,-0.835638994478,-0.851113790672,-0.851113790672,-0.851113790672,-0.866588586866,-0.866588586866,-0.88206338306,-0.88206338306,-0.88206338306,-0.897538179254,-0.897538179254,-0.897538179254,-0.913012975448,-0.913012975448,-0.913012975448,-0.928487771642,-0.928487771642,-0.943962567836,-0.943962567836,-0.943962567836,-0.943962567836,-0.95943736403
0.0,0.0,0.0,0.0,0.0,0.0,0.0,0.0,0.0,0.0,0.0,0.0,0.0,0.0,0.0,0.0,0.0,0.0,0.0,0.0,0.0,0.0,0.0,0.0,0.0,0.0,0.0,0.0,0.0,0.0,0.0,0.0,0.0,0.0,0.0,0.0,0.0,0.0,0.0,0.0,0.0,0.0,0.0,0.0,0.0,0.0,0.0,0.0,0.0,0.0,0.0,0.0,0.0,0.0,0.0,0.0,0.0,0.0,0.0,0.0,0.0,0.0,0.0,0.0,0.0,0.0,0.0,0.0,0.0,0.0,0.0,0.0,0.0,0.0,0.0,0.0,2.16647146716,2.15099667097,2.15099667097,2.13552187478,2.12004707858,2.12004707858,2.10457228239,2.10457228239,2.08909748619,2.04267309761,2.01172350522,1.98077391284,1.96529911664,1.96529911664,1.96529911664,1.94982432045,1.94982432045,1.93434952425,1.90339993187,1.88792513567,1.87245033948,1.85697554328,1.84150074709,1.8260259509,1.8105511547,1.8105511547,1.79507635851,1.77960156231,1.76412676612,1.74865196993,1.73317717373,1.71770237754,1.70222758134,1.68675278515,1.67127798896,1.65580319276,1.64032839657,1.64032839657,1.62485360037,1.60937880418,1.60937880418,1.59390400799,1.59390400799,1.57842921179,1.5629544156,1.5629544156,1.5474796194,1.53200482321,1.51653002702,1.50105523082,1.48558043463,1.47010563843,1.47010563843,1.45463084224,1.43915604604,1.42368124985,1.42368124985,1.40820645366,1.39273165746,1.37725686127,1.37725686127,1.36178206507,1.34630726888,1.33083247269,1.31535767649,1.2998828803,1.2844080841,1.26893328791,1.26893328791,1.25345849172,1.25345849172,1.23798369552,1.22250889933,1.20703410313,1.19155930694,1.17608451075,1.17608451075,1.16060971455,1.16060971455,1.14513491836,1.14513491836,1.14513491836,1.12966012216,1.11418532597,1.09871052978,1.09871052978,1.08323573358,1.06776093739,1.06776093739,1.05228614119,1.036811345,1.036811345,1.02133654881,1.00586175261,0.990386956418,0.990386956418,0.974912160224,0.95943736403,0.95943736403,0.943962567836,0.928487771642,0.928487771642,0.913012975448,0.897538179254,0.88206338306,0.88206338306,0.866588586866,0.866588586866,0.851113790672,0.851113790672,0.835638994478,0.820164198284,0.820164198284,0.80468940209,0.80468940209,0.789214605896,0.789214605896,0.773739809702,0.773739809702,0.758265013508,0.742790217313,0.727315421119,0.711840624925,0.711840624925,0.696365828731,0.696365828731,0.680891032537,0.680891032537,0.665416236343,0.665416236343,0.649941440149,0.634466643955,0.634466643955,0.618991847761,0.603517051567,0.603517051567,0.588042255373,0.588042255373,0.572567459179,0.572567459179,0.557092662985,0.557092662985,0.541617866791,0.526143070597,0.526143070597,0.510668274403,0.510668274403,0.495193478209,0.495193478209,0.479718682015,0.464243885821,0.464243885821,0.448769089627,0.448769089627,0.433294293433,0.433294293433,0.417819497239,0.417819497239,0.417819497239,0.402344701045,0.386869904851,0.386869904851,0.371395108657,0.355920312463,0.355920312463,0.340445516269,0.340445516269,0.324970720075,0.324970720075,0.309495923881,0.309495923881,0.294021127687,0.294021127687,0.278546331493,0.278546331493,0.278546331493,0.263071535299,0.263071535299,0.247596739104,0.23212194291,0.23212194291,0.216647146716,0.216647146716,0.201172350522,0.201172350522,0.185697554328,0.185697554328,0.170222758134,0.170222758134,0.170222758134,0.15474796194,0.15474796194,0.139273165746,0.139273165746,0.123798369552,0.123798369552,0.108323573358,0.108323573358,0.0928487771642,0.0773739809702,0.0773739809702,0.0773739809702,0.0618991847761,0.0618991847761,0.0618991847761,0.0464243885821,0.0464243885821,0.0309495923881,0.0309495923881,0.015474796194,0.015474796194,0.0,0.0,-0.015474796194,-0.015474796194,-0.0309495923881,-0.0309495923881,-0.0464243885821,-0.0464243885821,-0.0618991847761,-0.0618991847761,-0.0773739809702,-0.0773739809702,-0.0928487771642,-0.0928487771642,-0.0928487771642,-0.108323573358,-0.108323573358,-0.123798369552,-0.123798369552,-0.123798369552,-0.139273165746,-0.139273165746,-0.15474796194,-0.15474796194,-0.170222758134,-0.170222758134,-0.185697554328,-0.185697554328,-0.201172350522,-0.201172350522,-0.201172350522,-0.216647146716,-0.216647146716,-0.216647146716,-0.23212194291,-0.23212194291,-0.247596739104,-0.247596739104,-0.263071535299,-0.263071535299,-0.278546331493,-0.278546331493,-0.278546331493,-0.294021127687,-0.294021127687,-0.294021127687,-0.309495923881,-0.309495923881,-0.324970720075,-0.324970720075,-0.340445516269,-0.340445516269,-0.355920312463,-0.355920312463,-0.371395108657,-0.371395108657,-0.386869904851,-0.386869904851,-0.386869904851,-0.402344701045,-0.402344701045,-0.402344701045,-0.402344701045,-0.417819497239,-0.417819497239,-0.433294293433,-0.433294293433,-0.448769089627,-0.448769089627,-0.464243885821,-0.464243885821,-0.464243885821,-0.464243885821,-0.479718682015,-0.479718682015,-0.479718682015,-0.495193478209,-0.495193478209,-0.510668274403,-0.510668274403,-0.510668274403,-0.526143070597,-0.526143070597,-0.541617866791,-0.541617866791,-0.541617866791,-0.557092662985,-0.557092662985,-0.572567459179,-0.572567459179,-0.572567459179,-0.588042255373,-0.588042255373,-0.588042255373,-0.603517051567,-0.603517051567,-0.618991847761,-0.618991847761,-0.618991847761,-0.634466643955,-0.634466643955,-0.634466643955,-0.649941440149,-0.649941440149,-0.649941440149,-0.665416236343,-0.665416236343,-0.680891032537,-0.680891032537,-0.680891032537,-0.696365828731,-0.696365828731,-0.711840624925,-0.711840624925,-0.727315421119,-0.727315421119,-0.742790217313,-0.742790217313,-0.742790217313,-0.742790217313,-0.758265013508,-0.758265013508,-0.758265013508,-0.773739809702,-0.773739809702,-0.773739809702,-0.789214605896,-0.789214605896,-0.789214605896,-0.80468940209,-0.80468940209,-0.80468940209,-0.820164198284,-0.820164198284,-0.820164198284,-0.835638994478,-0.835638994478,-0.851113790672,-0.851113790672,-0.851113790672,-0.866588586866,-0.866588586866,-0.866588586866,-0.88206338306,-0.88206338306,-0.897538179254,-0.897538179254,-0.897538179254,-0.913012975448,-0.913012975448,-0.913012975448,-0.928487771642,-0.928487771642,-0.928487771642,-0.943962567836,-0.943962567836,-0.943962567836,-0.95943736403
0.0,0.0,0.0,0.0,0.0,0.0,0.0,0.0,0.0,0.0,0.0,0.0,0.0,0.0,0.0,0.0,0.0,0.0,0.0,0.0,0.0,0.0,0.0,0.0,0.0,0.0,0.0,0.0,0.0,0.0,0.0,0.0,0.0,0.0,0.0,0.0,0.0,0.0,0.0,0.0,0.0,0.0,0.0,0.0,0.0,0.0,0.0,0.0,0.0,0.0,0.0,0.0,0.0,0.0,0.0,0.0,0.0,0.0,0.0,0.0,0.0,0.0,0.0,0.0,0.0,0.0,0.0,0.0,0.0,0.0,0.0,0.0,0.0,0.0,0.0,2.18194626336,2.16647146716,2.16647146716,2.15099667097,2.13552187478,2.12004707858,2.12004707858,2.12004707858,2.10457228239,2.08909748619,2.05814789381,2.01172350522,1.98077391284,1.96529911664,1.96529911664,1.96529911664,1.96529911664,1.94982432045,1.93434952425,1.91887472806,1.90339993187,1.87245033948,1.85697554328,1.84150074709,1.8260259509,1.8260259509,1.8105511547,1.79507635851,1.77960156231,1.76412676612,1.74865196993,1.73317717373,1.71770237754,1.70222758134,1.68675278515,1.67127798896,1.65580319276,1.64032839657,1.62485360037,1.62485360037,1.60937880418,1.60937880418,1.59390400799,1.59390400799,1.57842921179,1.5629544156,1.5629544156,1.5474796194,1.53200482321,1.51653002702,1.50105523082,1.48558043463,1.48558043463,1.47010563843,1.45463084224,1.43915604604,1.43915604604,1.42368124985,1.40820645366,1.39273165746,1.39273165746,1.37725686127,1.36178206507,1.34630726888,1.33083247269,1.31535767649,1.2998828803,1.2844080841,1.2844080841,1.26893328791,1.25345849172,1.25345849172,1.23798369552,1.22250889933,1.20703410313,1.19155930694,1.17608451075,1.17608451075,1.16060971455,1.16060971455,1.16060971455,1.14513491836,1.14513491836,1.12966012216,1.11418532597,1.09871052978,1.09871052978,1.08323573358,1.06776093739,1.06776093739,1.05228614119,1.05228614119,1.036811345,1.02133654881,1.00586175261,1.00586175261,0.990386956418,0.974912160224,0.974912160224,0.95943736403,0.943962567836,0.943962567836,0.928487771642,0.913012975448,0.897538179254,0.897538179254,0.88206338306,0.866588586866,0.866588586866,0.851113790672,0.851113790672,0.835638994478,0.820164198284,0.820164198284,0.80468940209,0.80468940209,0.789214605896,0.789214605896,0.773739809702,0.773739809702,0.758265013508,0.742790217313,0.727315421119,0.727315421119,0.711840624925,0.696365828731,0.696365828731,0.680891032537,0.680891032537,0.665416236343,0.665416236343,0.649941440149,0.634466643955,0.634466643955,0.618991847761,0.603517051567,0.603517051567,0.588042255373,0.588042255373,0.572567459179,0.572567459179,0.557092662985,0.557092662985,0.541617866791,0.526143070597,0.526143070597,0.510668274403,0.510668274403,0.495193478209,0.495193478209,0.479718682015,0.464243885821,0.464243885821,0.448769089627,0.448769089627,0.433294293433,0.433294293433,0.417819497239,0.417819497239,0.417819497239,0.402344701045,0.386869904851,0.386869904851,0.371395108657,0.371395108657,0.355920312463,0.355920312463,0.340445516269,0.340445516269,0.324970720075,0.324970720075,0.309495923881,0.309495923881,0.294021127687,0.294021127687,0.278546331493,0.278546331493,0.263071535299,0.263071535299,0.247596739104,0.23212194291,0.23212194291,0.216647146716,0.216647146716,0.201172350522,0.201172350522,0.185697554328,0.185697554328,0.170222758134,0.170222758134,0.170222758134,0.15474796194,0.15474796194,0.139273165746,0.139273165746,0.123798369552,0.123798369552,0.108323573358,0.108323573358,0.0928487771642,0.0773739809702,0.0773739809702,0.0773739809702,0.0618991847761,0.0618991847761,0.0618991847761,0.0464243885821,0.0464243885821,0.0464243885821,0.0309495923881,0.015474796194,0.015474796194,0.0,0.0,-0.015474796194,-0.015474796194,-0.0309495923881,-0.0309495923881,-0.0309495923881,-0.0464243885821,-0.0464243885821,-0.0618991847761,-0.0618991847761,-0.0773739809702,-0.0773739809702,-0.0928487771642,-0.0928487771642,-0.108323573358,-0.108323573358,-0.123798369552,-0.123798369552,-0.123798369552,-0.139273165746,-0.139273165746,-0.15474796194,-0.15474796194,-0.170222758134,-0.170222758134,-0.170222758134,-0.185697554328,-0.185697554328,-0.201172350522,-0.201172350522,-0.216647146716,-0.216647146716,-0.216647146716,-0.23212194291,-0.23212194291,-0.247596739104,-0.247596739104,-0.263071535299,-0.263071535299,-0.263071535299,-0.278546331493,-0.278546331493,-0.294021127687,-0.294021127687,-0.294021127687,-0.309495923881,-0.309495923881,-0.324970720075,-0.324970720075,-0.340445516269,-0.340445516269,-0.355920312463,-0.355920312463,-0.371395108657,-0.371395108657,-0.386869904851,-0.386869904851,-0.386869904851,-0.402344701045,-0.402344701045,-0.402344701045,-0.402344701045,-0.417819497239,-0.417819497239,-0.433294293433,-0.433294293433,-0.448769089627,-0.448769089627,-0.448769089627,-0.464243885821,-0.464243885821,-0.464243885821,-0.479718682015,-0.479718682015,-0.479718682015,-0.495193478209,-0.495193478209,-0.495193478209,-0.510668274403,-0.510668274403,-0.526143070597,-0.526143070597,-0.526143070597,-0.541617866791,-0.541617866791,-0.557092662985,-0.557092662985,-0.572567459179,-0.572567459179,-0.572567459179,-0.588042255373,-0.588042255373,-0.588042255373,-0.603517051567,-0.603517051567,-0.618991847761,-0.618991847761,-0.618991847761,-0.634466643955,-0.634466643955,-0.634466643955,-0.649941440149,-0.649941440149,-0.649941440149,-0.665416236343,-0.665416236343,-0.680891032537,-0.680891032537,-0.680891032537,-0.696365828731,-0.696365828731,-0.711840624925,-0.711840624925,-0.727315421119,-0.727315421119,-0.742790217313,-0.742790217313,-0.742790217313,-0.742790217313,-0.758265013508,-0.758265013508,-0.758265013508,-0.773739809702,-0.773739809702,-0.773739809702,-0.789214605896,-0.789214605896,-0.80468940209,-0.80468940209,-0.80468940209,-0.80468940209,-0.820164198284,-0.820164198284,-0.820164198284,-0.835638994478,-0.835638994478,-0.835638994478,-0.851113790672,-0.851113790672,-0.866588586866,-0.866588586866,-0.866588586866,-0.88206338306,-0.88206338306,-0.897538179254,-0.897538179254,-0.897538179254,-0.913012975448,-0.913012975448,-0.913012975448,-0.928487771642,-0.928487771642,-0.928487771642,-0.943962567836,-0.943962567836,-0.943962567836,-0.95943736403
0.0,0.0,0.0,0.0,0.0,0.0,0.0,0.0,0.0,0.0,0.0,0.0,0.0,0.0,0.0,0.0,0.0,0.0,0.0,0.0,0.0,0.0,0.0,0.0,0.0,0.0,0.0,0.0,0.0,0.0,0.0,0.0,0.0,0.0,0.0,0.0,0.0,0.0,0.0,0.0,0.0,0.0,0.0,0.0,0.0,0.0,0.0,0.0,0.0,0.0,0.0,0.0,0.0,0.0,0.0,0.0,0.0,0.0,0.0,0.0,0.0,0.0,0.0,0.0,0.0,0.0,0.0,0.0,0.0,0.0,0.0,2.24384544813,2.22837065194,2.21289585575,2.18194626336,2.18194626336,2.16647146716,2.15099667097,2.15099667097,2.13552187478,2.13552187478,2.12004707858,2.12004707858,2.10457228239,2.10457228239,2.07362269,2.01172350522,1.98077391284,1.96529911664,1.96529911664,1.96529911664,1.96529911664,1.94982432045,1.94982432045,1.93434952425,1.90339993187,1.88792513567,1.85697554328,1.84150074709,1.84150074709,1.8260259509,1.8105511547,1.79507635851,1.77960156231,1.76412676612,1.74865196993,1.73317717373,1.71770237754,1.70222758134,1.68675278515,1.67127798896,1.65580319276,1.64032839657,1.64032839657,1.62485360037,1.60937880418,1.60937880418,1.59390400799,1.59390400799,1.57842921179,1.57842921179,1.5629544156,1.5474796194,1.53200482321,1.51653002702,1.50105523082,1.48558043463,1.48558043463,1.47010563843,1.45463084224,1.45463084224,1.43915604604,1.42368124985,1.40820645366,1.40820645366,1.39273165746,1.37725686127,1.36178206507,1.34630726888,1.34630726888,1.33083247269,1.31535767649,1.2998828803,1.2844080841,1.26893328791,1.26893328791,1.25345849172,1.23798369552,1.23798369552,1.20703410313,1.19155930694,1.17608451075,1.17608451075,1.16060971455,1.16060971455,1.16060971455,1.14513491836,1.14513491836,1.12966012216,1.11418532597,1.11418532597,1.09871052978,1.08323573358,1.06776093739,1.06776093739,1.05228614119,1.05228614119,1.036811345,1.02133654881,1.02133654881,1.00586175261,0.990386956418,0.974912160224,0.974912160224,0.95943736403,0.95943736403,0.943962567836,0.928487771642,0.913012975448,0.897538179254,0.897538179254,0.88206338306,0.88206338306,0.866588586866,0.851113790672,0.851113790672,0.835638994478,0.835638994478,0.820164198284,0.80468940209,0.80468940209,0.789214605896,0.789214605896,0.773739809702,0.773739809702,0.758265013508,0.742790217313,0.727315421119,0.727315421119,0.711840624925,0.696365828731,0.696365828731,0.680891032537,0.680891032537,0.665416236343,0.665416236343,0.649941440149,0.634466643955,0.634466643955,0.618991847761,0.618991847761,0.603517051567,0.603517051567,0.588042255373,0.588042255373,0.572567459179,0.572567459179,0.557092662985,0.541617866791,0.541617866791,0.526143070597,0.510668274403,0.510668274403,0.495193478209,0.495193478209,0.479718682015,0.464243885821,0.464243885821,0.448769089627,0.448769089627,0.433294293433,0.433294293433,0.417819497239,0.417819497239,0.417819497239,0.402344701045,0.386869904851,0.386869904851,0.371395108657,0.371395108657,0.355920312463,0.355920312463,0.340445516269,0.340445516269,0.324970720075,0.324970720075,0.309495923881,0.309495923881,0.294021127687,0.294021127687,0.278546331493,0.278546331493,0.263071535299,0.247596739104,0.247596739104,0.23212194291,0.23212194291,0.216647146716,0.216647146716,0.201172350522,0.201172350522,0.185697554328,0.185697554328,0.185697554328,0.170222758134,0.170222758134,0.15474796194,0.15474796194,0.139273165746,0.139273165746,0.123798369552,0.123798369552,0.108323573358,0.108323573358,0.0928487771642,0.0928487771642,0.0773739809702,0.0773739809702,0.0618991847761,0.0618991847761,0.0618991847761,0.0464243885821,0.0464243885821,0.0464243885821,0.0309495923881,0.0309495923881,0.015474796194,0.0,0.0,-0.015474796194,-0.015474796194,-0.0309495923881,-0.0309495923881,-0.0309495923881,-0.0464243885821,-0.0464243885821,-0.0618991847761,-0.0618991847761,-0.0773739809702,-0.0773739809702,-0.0928487771642,-0.0928487771642,-0.108323573358,-0.108323573358,-0.108323573358,-0.123798369552,-0.123798369552,-0.139273165746,-0.139273165746,-0.15474796194,-0.15474796194,-0.170222758134,-0.170222758134,-0.170222758134,-0.185697554328,-0.185697554328,-0.201172350522,-0.201172350522,-0.216647146716,-0.216647146716,-0.216647146716,-0.23212194291,-0.23212194291,-0.23212194291,-0.247596739104,-0.247596739104,-0.263071535299,-0.263071535299,-0.278546331493,-0.278546331493,-0.294021127687,-0.294021127687,-0.294021127687,-0.309495923881,-0.309495923881,-0.324970720075,-0.324970720075,-0.324970720075,-0.340445516269,-0.340445516269,-0.355920312463,-0.371395108657,-0.371395108657,-0.371395108657,-0.386869904851,-0.386869904851,-0.386869904851,-0.402344701045,-0.402344701045,-0.402344701045,-0.417819497239,-0.417819497239,-0.417819497239,-0.433294293433,-0.448769089627,-0.448769089627,-0.448769089627,-0.464243885821,-0.464243885821,-0.464243885821,-0.479718682015,-0.479718682015,-0.479718682015,-0.495193478209,-0.495193478209,-0.495193478209,-0.510668274403,-0.510668274403,-0.526143070597,-0.526143070597,-0.526143070597,-0.541617866791,-0.541617866791,-0.557092662985,-0.557092662985,-0.572567459179,-0.572567459179,-0.572567459179,-0.588042255373,-0.588042255373,-0.588042255373,-0.603517051567,-0.603517051567,-0.603517051567,-0.618991847761,-0.618991847761,-0.634466643955,-0.634466643955,-0.634466643955,-0.649941440149,-0.649941440149,-0.649941440149,-0.665416236343,-0.665416236343,-0.680891032537,-0.680891032537,-0.680891032537,-0.696365828731,-0.696365828731,-0.711840624925,-0.711840624925,-0.727315421119,-0.727315421119,-0.727315421119,-0.742790217313,-0.742790217313,-0.742790217313,-0.758265013508,-0.758265013508,-0.758265013508,-0.773739809702,-0.773739809702,-0.773739809702,-0.789214605896,-0.789214605896,-0.80468940209,-0.80468940209,-0.80468940209,-0.80468940209,-0.820164198284,-0.820164198284,-0.820164198284,-0.835638994478,-0.835638994478,-0.835638994478,-0.851113790672,-0.851113790672,-0.851113790672,-0.866588586866,-0.866588586866,-0.88206338306,-0.88206338306,-0.897538179254,-0.897538179254,-0.897538179254,-0.913012975448,-0.913012975448,-0.913012975448,-0.928487771642,-0.928487771642,-0.928487771642,-0.943962567836,-0.943962567836,-0.943962567836,-0.95943736403
0.0,0.0,0.0,0.0,0.0,0.0,0.0,0.0,0.0,0.0,0.0,0.0,0.0,0.0,0.0,0.0,0.0,0.0,0.0,0.0,0.0,0.0,0.0,0.0,0.0,0.0,0.0,0.0,0.0,0.0,0.0,0.0,0.0,0.0,0.0,0.0,0.0,0.0,0.0,0.0,0.0,0.0,0.0,0.0,0.0,0.0,0.0,0.0,0.0,0.0,0.0,0.0,0.0,0.0,0.0,0.0,0.0,0.0,0.0,0.0,0.0,0.0,2.53786657582,0.0,0.0,0.0,0.0,0.0,0.0,0.0,2.24384544813,2.22837065194,2.22837065194,2.19742105955,2.18194626336,2.16647146716,2.15099667097,2.15099667097,2.15099667097,2.13552187478,2.13552187478,2.12004707858,2.12004707858,2.12004707858,2.10457228239,2.07362269,2.01172350522,1.98077391284,1.98077391284,1.96529911664,1.96529911664,1.96529911664,1.96529911664,1.94982432045,1.93434952425,1.91887472806,1.88792513567,1.85697554328,1.85697554328,1.84150074709,1.8260259509,1.8260259509,1.8105511547,1.77960156231,1.76412676612,1.74865196993,1.73317717373,1.71770237754,1.70222758134,1.68675278515,1.67127798896,1.65580319276,1.65580319276,1.64032839657,1.62485360037,1.60937880418,1.60937880418,1.59390400799,1.59390400799,1.57842921179,1.5629544156,1.5629544156,1.5474796194,1.53200482321,1.51653002702,1.50105523082,1.48558043463,1.48558043463,1.47010563843,1.45463084224,1.45463084224,1.43915604604,1.42368124985,1.40820645366,1.40820645366,1.39273165746,1.37725686127,1.37725686127,1.36178206507,1.34630726888,1.33083247269,1.31535767649,1.2998828803,1.2844080841,1.26893328791,1.26893328791,1.25345849172,1.23798369552,1.23798369552,1.22250889933,1.19155930694,1.19155930694,1.17608451075,1.16060971455,1.16060971455,1.16060971455,1.14513491836,1.14513491836,1.12966012216,1.11418532597,1.11418532597,1.09871052978,1.08323573358,1.06776093739,1.06776093739,1.05228614119,1.05228614119,1.036811345,1.02133654881,1.02133654881,1.00586175261,0.990386956418,0.990386956418,0.974912160224,0.95943736403,0.95943736403,0.943962567836,0.928487771642,0.913012975448,0.913012975448,0.897538179254,0.88206338306,0.88206338306,0.866588586866,0.851113790672,0.851113790672,0.835638994478,0.835638994478,0.820164198284,0.80468940209,0.80468940209,0.789214605896,0.789214605896,0.773739809702,0.773739809702,0.758265013508,0.742790217313,0.742790217313,0.727315421119,0.711840624925,0.696365828731,0.696365828731,0.680891032537,0.680891032537,0.665416236343,0.665416236343,0.649941440149,0.634466643955,0.634466643955,0.618991847761,0.618991847761,0.603517051567,0.603517051567,0.588042255373,0.588042255373,0.572567459179,0.572567459179,0.557092662985,0.541617866791,0.541617866791,0.526143070597,0.526143070597,0.510668274403,0.510668274403,0.495193478209,0.479718682015,0.464243885821,0.464243885821,0.448769089627,0.448769089627,0.433294293433,0.433294293433,0.433294293433,0.417819497239,0.417819497239,0.402344701045,0.386869904851,0.386869904851,0.371395108657,0.371395108657,0.355920312463,0.355920312463,0.340445516269,0.340445516269,0.340445516269,0.324970720075,0.324970720075,0.309495923881,0.294021127687,0.294021127687,0.278546331493,0.278546331493,0.263071535299,0.247596739104,0.247596739104,0.23212194291,0.23212194291,0.216647146716,0.216647146716,0.201172350522,0.201172350522,0.185697554328,0.185697554328,0.185697554328,0.170222758134,0.170222758134,0.15474796194,0.15474796194,0.139273165746,0.139273165746,0.123798369552,0.123798369552,0.108323573358,0.108323573358,0.0928487771642,0.0928487771642,0.0773739809702,0.0773739809702,0.0618991847761,0.0618991847761,0.0618991847761,0.0464243885821,0.0464243885821,0.0464243885821,0.0309495923881,0.0309495923881,0.015474796194,0.0,0.0,-0.015474796194,-0.015474796194,-0.0309495923881,-0.0309495923881,-0.0309495923881,-0.0464243885821,-0.0464243885821,-0.0618991847761,-0.0618991847761,-0.0773739809702,-0.0773739809702,-0.0928487771642,-0.0928487771642,-0.108323573358,-0.108323573358,-0.108323573358,-0.123798369552,-0.123798369552,-0.139273165746,-0.139273165746,-0.15474796194,-0.15474796194,-0.170222758134,-0.170222758134,-0.170222758134,-0.185697554328,-0.185697554328,-0.201172350522,-0.201172350522,-0.216647146716,-0.216647146716,-0.216647146716,-0.23212194291,-0.23212194291,-0.23212194291,-0.247596739104,-0.247596739104,-0.263071535299,-0.263071535299,-0.278546331493,-0.278546331493,-0.294021127687,-0.294021127687,-0.294021127687,-0.309495923881,-0.309495923881,-0.324970720075,-0.324970720075,-0.324970720075,-0.340445516269,-0.340445516269,-0.355920312463,-0.355920312463,-0.371395108657,-0.371395108657,-0.386869904851,-0.386869904851,-0.386869904851,-0.402344701045,-0.402344701045,-0.402344701045,-0.417819497239,-0.417819497239,-0.417819497239,-0.433294293433,-0.433294293433,-0.448769089627,-0.448769089627,-0.464243885821,-0.464243885821,-0.464243885821,-0.479718682015,-0.479718682015,-0.479718682015,-0.495193478209,-0.495193478209,-0.495193478209,-0.510668274403,-0.510668274403,-0.526143070597,-0.526143070597,-0.526143070597,-0.541617866791,-0.541617866791,-0.557092662985,-0.557092662985,-0.557092662985,-0.572567459179,-0.572567459179,-0.572567459179,-0.588042255373,-0.588042255373,-0.588042255373,-0.603517051567,-0.603517051567,-0.618991847761,-0.618991847761,-0.634466643955,-0.634466643955,-0.634466643955,-0.649941440149,-0.649941440149,-0.649941440149,-0.665416236343,-0.665416236343,-0.680891032537,-0.680891032537,-0.680891032537,-0.696365828731,-0.696365828731,-0.711840624925,-0.711840624925,-0.727315421119,-0.727315421119,-0.727315421119,-0.742790217313,-0.742790217313,-0.742790217313,-0.758265013508,-0.758265013508,-0.758265013508,-0.773739809702,-0.773739809702,-0.789214605896,-0.789214605896,-0.789214605896,-0.80468940209,-0.80468940209,-0.80468940209,-0.80468940209,-0.820164198284,-0.820164198284,-0.820164198284,-0.835638994478,-0.835638994478,-0.835638994478,-0.851113790672,-0.851113790672,-0.851113790672,-0.866588586866,-0.866588586866,-0.88206338306,-0.88206338306,-0.88206338306,-0.897538179254,-0.897538179254,-0.897538179254,-0.913012975448,-0.913012975448,-0.928487771642,-0.928487771642,-0.928487771642,-0.943962567836,-0.943962567836,-0.943962567836,-0.95943736403
0.0,0.0,0.0,0.0,0.0,0.0,0.0,0.0,0.0,0.0,0.0,0.0,0.0,0.0,0.0,0.0,0.0,0.0,0.0,0.0,0.0,0.0,0.0,0.0,0.0,0.0,0.0,0.0,0.0,0.0,0.0,0.0,0.0,0.0,0.0,0.0,0.0,0.0,0.0,0.0,0.0,0.0,0.0,0.0,0.0,0.0,0.0,0.0,0.0,0.0,0.0,0.0,0.0,0.0,0.0,0.0,0.0,0.0,0.0,0.0,2.53786657582,2.53786657582,2.53786657582,2.53786657582,0.0,0.0,0.0,2.36764381769,2.3366942253,2.27479504052,2.24384544813,2.22837065194,2.21289585575,2.19742105955,2.18194626336,2.16647146716,2.15099667097,2.15099667097,2.15099667097,2.13552187478,2.13552187478,2.13552187478,2.12004707858,2.12004707858,2.10457228239,2.05814789381,2.01172350522,1.98077391284,1.98077391284,1.96529911664,1.96529911664,1.96529911664,1.96529911664,1.94982432045,1.93434952425,1.91887472806,1.88792513567,1.85697554328,1.85697554328,1.84150074709,1.84150074709,1.8260259509,1.8105511547,1.79507635851,1.77960156231,1.74865196993,1.73317717373,1.71770237754,1.70222758134,1.70222758134,1.68675278515,1.67127798896,1.65580319276,1.64032839657,1.64032839657,1.62485360037,1.60937880418,1.60937880418,1.59390400799,1.57842921179,1.5629544156,1.5629544156,1.5474796194,1.53200482321,1.51653002702,1.50105523082,1.48558043463,1.48558043463,1.47010563843,1.45463084224,1.45463084224,1.43915604604,1.42368124985,1.42368124985,1.40820645366,1.39273165746,1.39273165746,1.37725686127,1.36178206507,1.34630726888,1.33083247269,1.31535767649,1.2998828803,1.2844080841,1.2844080841,1.26893328791,1.25345849172,1.25345849172,1.23798369552,1.22250889933,1.20703410313,1.19155930694,1.17608451075,1.16060971455,1.16060971455,1.16060971455,1.14513491836,1.14513491836,1.12966012216,1.11418532597,1.11418532597,1.09871052978,1.08323573358,1.06776093739,1.06776093739,1.05228614119,1.05228614119,1.036811345,1.02133654881,1.02133654881,1.00586175261,0.990386956418,0.990386956418,0.974912160224,0.95943736403,0.95943736403,0.943962567836,0.928487771642,0.928487771642,0.913012975448,0.897538179254,0.88206338306,0.88206338306,0.866588586866,0.866588586866,0.851113790672,0.835638994478,0.835638994478,0.820164198284,0.820164198284,0.80468940209,0.789214605896,0.789214605896,0.789214605896,0.773739809702,0.758265013508,0.742790217313,0.727315421119,0.727315421119,0.711840624925,0.696365828731,0.696365828731,0.680891032537,0.680891032537,0.665416236343,0.665416236343,0.649941440149,0.634466643955,0.634466643955,0.618991847761,0.618991847761,0.603517051567,0.603517051567,0.588042255373,0.588042255373,0.572567459179,0.572567459179,0.557092662985,0.557092662985,0.541617866791,0.526143070597,0.526143070597,0.510668274403,0.510668274403,0.495193478209,0.479718682015,0.464243885821,0.464243885821,0.448769089627,0.448769089627,0.433294293433,0.433294293433,0.433294293433,0.417819497239,0.417819497239,0.402344701045,0.386869904851,0.386869904851,0.371395108657,0.371395108657,0.355920312463,0.355920312463,0.340445516269,0.340445516269,0.340445516269,0.324970720075,0.324970720075,0.309495923881,0.309495923881,0.294021127687,0.278546331493,0.278546331493,0.263071535299,0.247596739104,0.247596739104,0.23212194291,0.23212194291,0.216647146716,0.216647146716,0.201172350522,0.201172350522,0.185697554328,0.185697554328,0.185697554328,0.170222758134,0.170222758134,0.15474796194,0.15474796194,0.139273165746,0.139273165746,0.139273165746,0.123798369552,0.123798369552,0.108323573358,0.0928487771642,0.0928487771642,0.0773739809702,0.0773739809702,0.0618991847761,0.0618991847761,0.0618991847761,0.0464243885821,0.0464243885821,0.0464243885821,0.0309495923881,0.0309495923881,0.015474796194,0.0,0.0,-0.015474796194,-0.015474796194,-0.0309495923881,-0.0309495923881,-0.0309495923881,-0.0464243885821,-0.0464243885821,-0.0618991847761,-0.0618991847761,-0.0773739809702,-0.0773739809702,-0.0928487771642,-0.0928487771642,-0.0928487771642,-0.108323573358,-0.108323573358,-0.123798369552,-0.123798369552,-0.139273165746,-0.139273165746,-0.15474796194,-0.15474796194,-0.15474796194,-0.170222758134,-0.170222758134,-0.185697554328,-0.185697554328,-0.201172350522,-0.201172350522,-0.201172350522,-0.216647146716,-0.216647146716,-0.23212194291,-0.23212194291,-0.23212194291,-0.247596739104,-0.247596739104,-0.263071535299,-0.263071535299,-0.278546331493,-0.278546331493,-0.294021127687,-0.294021127687,-0.294021127687,-0.309495923881,-0.309495923881,-0.309495923881,-0.324970720075,-0.324970720075,-0.340445516269,-0.340445516269,-0.355920312463,-0.355920312463,-0.371395108657,-0.371395108657,-0.386869904851,-0.386869904851,-0.386869904851,-0.402344701045,-0.402344701045,-0.402344701045,-0.417819497239,-0.417819497239,-0.417819497239,-0.433294293433,-0.433294293433,-0.448769089627,-0.448769089627,-0.464243885821,-0.464243885821,-0.464243885821,-0.479718682015,-0.479718682015,-0.479718682015,-0.495193478209,-0.495193478209,-0.495193478209,-0.510668274403,-0.510668274403,-0.510668274403,-0.526143070597,-0.526143070597,-0.541617866791,-0.541617866791,-0.557092662985,-0.557092662985,-0.557092662985,-0.572567459179,-0.572567459179,-0.572567459179,-0.588042255373,-0.588042255373,-0.588042255373,-0.603517051567,-0.603517051567,-0.618991847761,-0.618991847761,-0.634466643955,-0.634466643955,-0.634466643955,-0.649941440149,-0.649941440149,-0.649941440149,-0.665416236343,-0.665416236343,-0.680891032537,-0.680891032537,-0.680891032537,-0.696365828731,-0.696365828731,-0.711840624925,-0.711840624925,-0.727315421119,-0.727315421119,-0.727315421119,-0.742790217313,-0.742790217313,-0.742790217313,-0.758265013508,-0.758265013508,-0.758265013508,-0.773739809702,-0.773739809702,-0.789214605896,-0.789214605896,-0.789214605896,-0.789214605896,-0.80468940209,-0.80468940209,-0.80468940209,-0.820164198284,-0.820164198284,-0.820164198284,-0.835638994478,-0.835638994478,-0.835638994478,-0.851113790672,-0.851113790672,-0.851113790672,-0.866588586866,-0.866588586866,-0.866588586866,-0.88206338306,-0.88206338306,-0.897538179254,-0.897538179254,-0.897538179254,-0.913012975448,-0.913012975448,-0.928487771642,-0.928487771642,-0.928487771642,-0.943962567836,-0.943962567836,-0.943962567836,-0.943962567836
0.0,0.0,0.0,0.0,0.0,0.0,0.0,0.0,0.0,0.0,0.0,0.0,0.0,0.0,0.0,0.0,0.0,0.0,0.0,0.0,0.0,0.0,0.0,0.0,0.0,0.0,0.0,0.0,0.0,0.0,0.0,0.0,0.0,0.0,0.0,0.0,0.0,0.0,0.0,0.0,0.0,0.0,0.0,0.0,0.0,0.0,0.0,0.0,0.0,0.0,0.0,0.0,0.0,0.0,0.0,0.0,0.0,0.0,0.0,2.55334137202,2.53786657582,2.53786657582,2.53786657582,2.53786657582,0.0,0.0,2.39859341007,2.38311861388,2.3366942253,2.29026983672,2.25932024433,2.22837065194,2.21289585575,2.19742105955,2.16647146716,2.16647146716,2.15099667097,2.15099667097,2.15099667097,2.15099667097,2.13552187478,2.13552187478,2.12004707858,2.12004707858,2.10457228239,2.04267309761,2.01172350522,1.98077391284,1.98077391284,1.96529911664,1.96529911664,1.96529911664,1.96529911664,1.94982432045,1.93434952425,1.90339993187,1.87245033948,1.85697554328,1.85697554328,1.85697554328,1.84150074709,1.8260259509,1.8260259509,1.8105511547,1.77960156231,1.76412676612,1.73317717373,1.73317717373,1.71770237754,1.70222758134,1.68675278515,1.68675278515,1.67127798896,1.65580319276,1.64032839657,1.62485360037,1.60937880418,1.60937880418,1.59390400799,1.57842921179,1.5629544156,1.5474796194,1.5474796194,1.53200482321,1.51653002702,1.50105523082,1.48558043463,1.48558043463,1.47010563843,1.45463084224,1.45463084224,1.43915604604,1.42368124985,1.42368124985,1.40820645366,1.40820645366,1.39273165746,1.37725686127,1.36178206507,1.34630726888,1.33083247269,1.31535767649,1.2998828803,1.2844080841,1.2844080841,1.26893328791,1.25345849172,1.25345849172,1.23798369552,1.22250889933,1.20703410313,1.19155930694,1.17608451075,1.17608451075,1.16060971455,1.16060971455,1.14513491836,1.14513491836,1.12966012216,1.11418532597,1.11418532597,1.09871052978,1.08323573358,1.06776093739,1.06776093739,1.05228614119,1.05228614119,1.036811345,1.02133654881,1.02133654881,1.00586175261,0.990386956418,0.990386956418,0.974912160224,0.974912160224,0.95943736403,0.943962567836,0.928487771642,0.928487771642,0.913012975448,0.897538179254,0.88206338306,0.88206338306,0.866588586866,0.866588586866,0.851113790672,0.835638994478,0.835638994478,0.820164198284,0.820164198284,0.80468940209,0.80468940209,0.789214605896,0.789214605896,0.773739809702,0.758265013508,0.742790217313,0.727315421119,0.727315421119,0.711840624925,0.696365828731,0.696365828731,0.680891032537,0.680891032537,0.665416236343,0.665416236343,0.649941440149,0.649941440149,0.634466643955,0.618991847761,0.618991847761,0.603517051567,0.603517051567,0.588042255373,0.588042255373,0.572567459179,0.572567459179,0.557092662985,0.557092662985,0.541617866791,0.541617866791,0.526143070597,0.510668274403,0.510668274403,0.495193478209,0.479718682015,0.464243885821,0.464243885821,0.448769089627,0.448769089627,0.433294293433,0.433294293433,0.433294293433,0.417819497239,0.417819497239,0.402344701045,0.386869904851,0.386869904851,0.371395108657,0.371395108657,0.355920312463,0.355920312463,0.355920312463,0.340445516269,0.340445516269,0.324970720075,0.324970720075,0.309495923881,0.309495923881,0.294021127687,0.278546331493,0.278546331493,0.263071535299,0.263071535299,0.247596739104,0.23212194291,0.23212194291,0.216647146716,0.216647146716,0.201172350522,0.201172350522,0.201172350522,0.185697554328,0.185697554328,0.170222758134,0.170222758134,0.15474796194,0.15474796194,0.139273165746,0.139273165746,0.139273165746,0.123798369552,0.123798369552,0.108323573358,0.0928487771642,0.0928487771642,0.0773739809702,0.0773739809702,0.0618991847761,0.0618991847761,0.0618991847761,0.0464243885821,0.0464243885821,0.0464243885821,0.0309495923881,0.0309495923881,0.015474796194,0.0,0.0,-0.015474796194,-0.015474796194,-0.0309495923881,-0.0309495923881,-0.0309495923881,-0.0464243885821,-0.0464243885821,-0.0618991847761,-0.0618991847761,-0.0618991847761,-0.0773739809702,-0.0773739809702,-0.0928487771642,-0.0928487771642,-0.108323573358,-0.108323573358,-0.123798369552,-0.123798369552,-0.139273165746,-0.139273165746,-0.15474796194,-0.15474796194,-0.15474796194,-0.170222758134,-0.170222758134,-0.185697554328,-0.185697554328,-0.185697554328,-0.201172350522,-0.201172350522,-0.216647146716,-0.216647146716,-0.23212194291,-0.23212194291,-0.23212194291,-0.247596739104,-0.247596739104,-0.263071535299,-0.263071535299,-0.278546331493,-0.278546331493,-0.294021127687,-0.294021127687,-0.294021127687,-0.309495923881,-0.309495923881,-0.309495923881,-0.324970720075,-0.324970720075,-0.340445516269,-0.340445516269,-0.355920312463,-0.355920312463,-0.371395108657,-0.371395108657,-0.386869904851,-0.386869904851,-0.386869904851,-0.402344701045,-0.402344701045,-0.402344701045,-0.417819497239,-0.417819497239,-0.417819497239,-0.433294293433,-0.433294293433,-0.448769089627,-0.448769089627,-0.448769089627,-0.464243885821,-0.464243885821,-0.479718682015,-0.479718682015,-0.479718682015,-0.495193478209,-0.495193478209,-0.495193478209,-0.510668274403,-0.510668274403,-0.510668274403,-0.526143070597,-0.526143070597,-0.541617866791,-0.541617866791,-0.541617866791,-0.557092662985,-0.557092662985,-0.572567459179,-0.572567459179,-0.572567459179,-0.588042255373,-0.588042255373,-0.588042255373,-0.603517051567,-0.603517051567,-0.618991847761,-0.618991847761,-0.634466643955,-0.634466643955,-0.634466643955,-0.649941440149,-0.649941440149,-0.649941440149,-0.665416236343,-0.665416236343,-0.680891032537,-0.680891032537,-0.680891032537,-0.696365828731,-0.696365828731,-0.711840624925,-0.711840624925,-0.711840624925,-0.727315421119,-0.727315421119,-0.742790217313,-0.742790217313,-0.742790217313,-0.742790217313,-0.758265013508,-0.758265013508,-0.773739809702,-0.773739809702,-0.789214605896,-0.789214605896,-0.789214605896,-0.789214605896,-0.80468940209,-0.80468940209,-0.80468940209,-0.820164198284,-0.820164198284,-0.820164198284,-0.835638994478,-0.835638994478,-0.835638994478,-0.851113790672,-0.851113790672,-0.851113790672,-0.866588586866,-0.866588586866,-0.866588586866,-0.88206338306,-0.88206338306,-0.88206338306,-0.897538179254,-0.897538179254,-0.913012975448,-0.913012975448,-0.913012975448,-0.928487771642,-0.928487771642,-0.943962567836,-0.943962567836,-0.943962567836,-0.943962567836
0.0,0.0,0.0,0.0,0.0,0.0,0.0,0.0,0.0,0.0,0.0,0.0,0.0,0.0,0.0,0.0,0.0,0.0,0.0,0.0,0.0,0.0,0.0,0.0,0.0,0.0,0.0,0.0,0.0,0.0,0.0,0.0,0.0,0.0,0.0,0.0,0.0,0.0,0.0,0.0,0.0,0.0,0.0,0.0,0.0,0.0,0.0,0.0,0.0,0.0,0.0,0.0,0.0,0.0,0.0,0.0,0.0,0.0,0.0,2.53786657582,2.53786657582,2.53786657582,2.52239177963,2.50691698343,0.0,0.0,2.39859341007,2.39859341007,2.35216902149,2.29026983672,2.25932024433,2.22837065194,2.21289585575,2.18194626336,2.16647146716,2.16647146716,2.15099667097,2.15099667097,2.15099667097,2.15099667097,2.13552187478,2.13552187478,2.13552187478,2.12004707858,2.08909748619,2.04267309761,1.99624870903,1.98077391284,1.98077391284,1.96529911664,1.96529911664,1.96529911664,1.96529911664,1.94982432045,1.93434952425,1.90339993187,1.87245033948,1.85697554328,1.85697554328,1.85697554328,1.84150074709,1.84150074709,1.8260259509,1.8105511547,1.79507635851,1.76412676612,1.74865196993,1.73317717373,1.71770237754,1.71770237754,1.70222758134,1.68675278515,1.67127798896,1.65580319276,1.65580319276,1.64032839657,1.62485360037,1.60937880418,1.59390400799,1.57842921179,1.5629544156,1.5474796194,1.5474796194,1.53200482321,1.51653002702,1.50105523082,1.48558043463,1.48558043463,1.47010563843,1.45463084224,1.45463084224,1.43915604604,1.43915604604,1.42368124985,1.40820645366,1.40820645366,1.39273165746,1.37725686127,1.36178206507,1.34630726888,1.33083247269,1.31535767649,1.2998828803,1.2844080841,1.2844080841,1.26893328791,1.26893328791,1.25345849172,1.23798369552,1.22250889933,1.20703410313,1.19155930694,1.17608451075,1.17608451075,1.16060971455,1.16060971455,1.14513491836,1.14513491836,1.12966012216,1.11418532597,1.11418532597,1.09871052978,1.08323573358,1.06776093739,1.06776093739,1.05228614119,1.05228614119,1.036811345,1.02133654881,1.02133654881,1.00586175261,0.990386956418,0.990386956418,0.974912160224,0.974912160224,0.95943736403,0.943962567836,0.943962567836,0.928487771642,0.913012975448,0.897538179254,0.88206338306,0.88206338306,0.866588586866,0.866588586866,0.851113790672,0.835638994478,0.835638994478,0.820164198284,0.820164198284,0.80468940209,0.80468940209,0.789214605896,0.789214605896,0.773739809702,0.758265013508,0.742790217313,0.727315421119,0.727315421119,0.711840624925,0.696365828731,0.696365828731,0.696365828731,0.680891032537,0.680891032537,0.665416236343,0.649941440149,0.649941440149,0.634466643955,0.634466643955,0.618991847761,0.603517051567,0.603517051567,0.588042255373,0.588042255373,0.572567459179,0.572567459179,0.557092662985,0.557092662985,0.541617866791,0.541617866791,0.526143070597,0.510668274403,0.510668274403,0.495193478209,0.479718682015,0.479718682015,0.464243885821,0.448769089627,0.448769089627,0.448769089627,0.433294293433,0.433294293433,0.417819497239,0.417819497239,0.402344701045,0.402344701045,0.386869904851,0.371395108657,0.371395108657,0.355920312463,0.355920312463,0.355920312463,0.340445516269,0.340445516269,0.324970720075,0.324970720075,0.309495923881,0.309495923881,0.294021127687,0.294021127687,0.278546331493,0.263071535299,0.263071535299,0.247596739104,0.23212194291,0.23212194291,0.23212194291,0.216647146716,0.216647146716,0.201172350522,0.201172350522,0.185697554328,0.185697554328,0.170222758134,0.170222758134,0.15474796194,0.15474796194,0.15474796194,0.139273165746,0.139273165746,0.123798369552,0.123798369552,0.108323573358,0.108323573358,0.0928487771642,0.0773739809702,0.0773739809702,0.0618991847761,0.0618991847761,0.0618991847761,0.0464243885821,0.0464243885821,0.0464243885821,0.0309495923881,0.0309495923881,0.015474796194,0.0,0.0,-0.015474796194,-0.015474796194,-0.015474796194,-0.0309495923881,-0.0309495923881,-0.0464243885821,-0.0464243885821,-0.0464243885821,-0.0618991847761,-0.0618991847761,-0.0773739809702,-0.0773739809702,-0.0928487771642,-0.0928487771642,-0.108323573358,-0.108323573358,-0.123798369552,-0.123798369552,-0.139273165746,-0.139273165746,-0.139273165746,-0.15474796194,-0.15474796194,-0.170222758134,-0.170222758134,-0.170222758134,-0.185697554328,-0.185697554328,-0.201172350522,-0.201172350522,-0.216647146716,-0.216647146716,-0.23212194291,-0.23212194291,-0.23212194291,-0.247596739104,-0.247596739104,-0.263071535299,-0.263071535299,-0.278546331493,-0.278546331493,-0.294021127687,-0.294021127687,-0.294021127687,-0.309495923881,-0.309495923881,-0.309495923881,-0.324970720075,-0.324970720075,-0.340445516269,-0.340445516269,-0.355920312463,-0.355920312463,-0.371395108657,-0.371395108657,-0.371395108657,-0.386869904851,-0.386869904851,-0.386869904851,-0.402344701045,-0.402344701045,-0.417819497239,-0.417819497239,-0.417819497239,-0.433294293433,-0.433294293433,-0.448769089627,-0.448769089627,-0.448769089627,-0.464243885821,-0.464243885821,-0.464243885821,-0.479718682015,-0.479718682015,-0.495193478209,-0.495193478209,-0.495193478209,-0.510668274403,-0.510668274403,-0.510668274403,-0.526143070597,-0.526143070597,-0.526143070597,-0.541617866791,-0.541617866791,-0.557092662985,-0.557092662985,-0.557092662985,-0.572567459179,-0.572567459179,-0.588042255373,-0.588042255373,-0.588042255373,-0.603517051567,-0.603517051567,-0.618991847761,-0.618991847761,-0.634466643955,-0.634466643955,-0.634466643955,-0.649941440149,-0.649941440149,-0.649941440149,-0.665416236343,-0.665416236343,-0.665416236343,-0.680891032537,-0.680891032537,-0.696365828731,-0.696365828731,-0.711840624925,-0.711840624925,-0.711840624925,-0.727315421119,-0.727315421119,-0.727315421119,-0.742790217313,-0.742790217313,-0.742790217313,-0.758265013508,-0.758265013508,-0.773739809702,-0.773739809702,-0.773739809702,-0.789214605896,-0.789214605896,-0.789214605896,-0.80468940209,-0.80468940209,-0.80468940209,-0.80468940209,-0.820164198284,-0.820164198284,-0.820164198284,-0.835638994478,-0.835638994478,-0.835638994478,-0.851113790672,-0.851113790672,-0.851113790672,-0.866588586866,-0.866588586866,-0.88206338306,-0.88206338306,-0.88206338306,-0.897538179254,-0.897538179254,-0.897538179254,-0.913012975448,-0.913012975448,-0.928487771642,-0.928487771642,-0.943962567836,-0.943962567836,-0.943962567836,-0.943962567836
0.0,0.0,0.0,0.0,0.0,0.0,0.0,0.0,0.0,0.0,0.0,0.0,0.0,0.0,0.0,0.0,0.0,0.0,0.0,0.0,0.0,0.0,0.0,0.0,0.0,0.0,0.0,0.0,0.0,0.0,0.0,0.0,0.0,0.0,0.0,0.0,0.0,0.0,0.0,0.0,0.0,0.0,0.0,0.0,0.0,0.0,0.0,0.0,0.0,0.0,0.0,0.0,0.0,0.0,0.0,0.0,0.0,0.0,0.0,2.53786657582,2.53786657582,2.52239177963,2.50691698343,2.47596739104,0.0,0.0,2.39859341007,2.39859341007,2.35216902149,2.29026983672,2.25932024433,2.22837065194,2.21289585575,2.19742105955,2.16647146716,2.16647146716,2.15099667097,2.15099667097,2.15099667097,2.15099667097,2.15099667097,2.13552187478,2.13552187478,2.12004707858,2.08909748619,2.04267309761,1.99624870903,1.99624870903,1.98077391284,1.96529911664,1.96529911664,1.96529911664,1.94982432045,1.94982432045,1.91887472806,1.88792513567,1.87245033948,1.85697554328,1.85697554328,1.85697554328,1.85697554328,1.84150074709,1.8260259509,1.8260259509,1.79507635851,1.76412676612,1.74865196993,1.73317717373,1.73317717373,1.71770237754,1.70222758134,1.68675278515,1.68675278515,1.67127798896,1.65580319276,1.64032839657,1.64032839657,1.62485360037,1.60937880418,1.59390400799,1.57842921179,1.5629544156,1.53200482321,1.51653002702,1.50105523082,1.50105523082,1.48558043463,1.48558043463,1.47010563843,1.47010563843,1.45463084224,1.43915604604,1.43915604604,1.42368124985,1.42368124985,1.40820645366,1.39273165746,1.39273165746,1.37725686127,1.34630726888,1.33083247269,1.31535767649,1.2998828803,1.2844080841,1.2844080841,1.26893328791,1.26893328791,1.25345849172,1.23798369552,1.22250889933,1.20703410313,1.19155930694,1.19155930694,1.17608451075,1.17608451075,1.16060971455,1.16060971455,1.14513491836,1.12966012216,1.11418532597,1.11418532597,1.09871052978,1.08323573358,1.06776093739,1.06776093739,1.05228614119,1.05228614119,1.036811345,1.02133654881,1.02133654881,1.00586175261,0.990386956418,0.990386956418,0.974912160224,0.974912160224,0.95943736403,0.943962567836,0.943962567836,0.928487771642,0.913012975448,0.897538179254,0.897538179254,0.88206338306,0.866588586866,0.866588586866,0.851113790672,0.851113790672,0.835638994478,0.820164198284,0.820164198284,0.80468940209,0.80468940209,0.789214605896,0.789214605896,0.773739809702,0.758265013508,0.742790217313,0.727315421119,0.727315421119,0.711840624925,0.711840624925,0.696365828731,0.696365828731,0.680891032537,0.680891032537,0.665416236343,0.665416236343,0.649941440149,0.634466643955,0.634466643955,0.618991847761,0.618991847761,0.603517051567,0.603517051567,0.588042255373,0.588042255373,0.572567459179,0.557092662985,0.557092662985,0.541617866791,0.541617866791,0.526143070597,0.526143070597,0.510668274403,0.495193478209,0.479718682015,0.479718682015,0.464243885821,0.448769089627,0.448769089627,0.448769089627,0.433294293433,0.433294293433,0.417819497239,0.417819497239,0.402344701045,0.402344701045,0.386869904851,0.371395108657,0.371395108657,0.355920312463,0.355920312463,0.355920312463,0.340445516269,0.340445516269,0.324970720075,0.324970720075,0.309495923881,0.309495923881,0.294021127687,0.294021127687,0.278546331493,0.263071535299,0.263071535299,0.247596739104,0.247596739104,0.23212194291,0.23212194291,0.216647146716,0.216647146716,0.201172350522,0.201172350522,0.185697554328,0.185697554328,0.185697554328,0.170222758134,0.15474796194,0.15474796194,0.15474796194,0.139273165746,0.139273165746,0.123798369552,0.123798369552,0.108323573358,0.108323573358,0.0928487771642,0.0773739809702,0.0773739809702,0.0618991847761,0.0618991847761,0.0618991847761,0.0464243885821,0.0464243885821,0.0464243885821,0.0309495923881,0.0309495923881,0.015474796194,0.0,0.0,-0.015474796194,-0.015474796194,-0.015474796194,-0.0309495923881,-0.0309495923881,-0.0464243885821,-0.0464243885821,-0.0464243885821,-0.0618991847761,-0.0618991847761,-0.0773739809702,-0.0773739809702,-0.0928487771642,-0.0928487771642,-0.108323573358,-0.108323573358,-0.123798369552,-0.123798369552,-0.139273165746,-0.139273165746,-0.139273165746,-0.15474796194,-0.15474796194,-0.15474796194,-0.170222758134,-0.170222758134,-0.185697554328,-0.185697554328,-0.201172350522,-0.201172350522,-0.216647146716,-0.216647146716,-0.23212194291,-0.23212194291,-0.23212194291,-0.247596739104,-0.247596739104,-0.263071535299,-0.263071535299,-0.278546331493,-0.278546331493,-0.294021127687,-0.294021127687,-0.294021127687,-0.309495923881,-0.309495923881,-0.309495923881,-0.324970720075,-0.324970720075,-0.340445516269,-0.340445516269,-0.355920312463,-0.355920312463,-0.371395108657,-0.371395108657,-0.371395108657,-0.386869904851,-0.386869904851,-0.386869904851,-0.402344701045,-0.402344701045,-0.402344701045,-0.417819497239,-0.417819497239,-0.433294293433,-0.433294293433,-0.433294293433,-0.448769089627,-0.448769089627,-0.464243885821,-0.464243885821,-0.464243885821,-0.479718682015,-0.479718682015,-0.479718682015,-0.495193478209,-0.495193478209,-0.510668274403,-0.510668274403,-0.510668274403,-0.526143070597,-0.526143070597,-0.526143070597,-0.541617866791,-0.541617866791,-0.557092662985,-0.557092662985,-0.557092662985,-0.572567459179,-0.572567459179,-0.588042255373,-0.588042255373,-0.588042255373,-0.603517051567,-0.603517051567,-0.618991847761,-0.618991847761,-0.634466643955,-0.634466643955,-0.634466643955,-0.649941440149,-0.649941440149,-0.649941440149,-0.665416236343,-0.665416236343,-0.665416236343,-0.680891032537,-0.680891032537,-0.696365828731,-0.696365828731,-0.696365828731,-0.711840624925,-0.711840624925,-0.727315421119,-0.727315421119,-0.727315421119,-0.742790217313,-0.742790217313,-0.742790217313,-0.758265013508,-0.758265013508,-0.758265013508,-0.773739809702,-0.773739809702,-0.789214605896,-0.789214605896,-0.789214605896,-0.80468940209,-0.80468940209,-0.80468940209,-0.80468940209,-0.820164198284,-0.820164198284,-0.820164198284,-0.835638994478,-0.835638994478,-0.835638994478,-0.851113790672,-0.851113790672,-0.851113790672,-0.866588586866,-0.866588586866,-0.866588586866,-0.88206338306,-0.88206338306,-0.897538179254,-0.897538179254,-0.897538179254,-0.913012975448,-0.913012975448,-0.928487771642,-0.928487771642,-0.928487771642,-0.943962567836,-0.943962567836,-0.943962567836
0.0,0.0,0.0,0.0,0.0,0.0,0.0,0.0,0.0,0.0,0.0,0.0,0.0,0.0,0.0,0.0,0.0,0.0,0.0,0.0,0.0,0.0,0.0,0.0,0.0,0.0,0.0,0.0,0.0,0.0,0.0,0.0,0.0,0.0,0.0,0.0,0.0,0.0,0.0,0.0,0.0,0.0,0.0,0.0,0.0,0.0,0.0,0.0,0.0,0.0,0.0,0.0,0.0,0.0,0.0,0.0,0.0,0.0,0.0,2.53786657582,2.52239177963,2.52239177963,2.49144218724,2.46049259485,0.0,0.0,2.41406820627,2.39859341007,2.35216902149,2.30574463291,2.25932024433,2.24384544813,2.21289585575,2.19742105955,2.18194626336,2.16647146716,2.16647146716,2.15099667097,2.15099667097,2.15099667097,2.15099667097,2.13552187478,2.13552187478,2.12004707858,2.08909748619,2.05814789381,2.01172350522,1.99624870903,1.98077391284,1.98077391284,1.96529911664,1.96529911664,1.94982432045,1.94982432045,1.91887472806,1.88792513567,1.87245033948,1.87245033948,1.85697554328,1.85697554328,1.85697554328,1.84150074709,1.84150074709,1.8260259509,1.79507635851,1.77960156231,1.74865196993,1.73317717373,1.73317717373,1.71770237754,1.71770237754,1.70222758134,1.68675278515,1.67127798896,1.67127798896,1.65580319276,1.64032839657,1.62485360037,1.60937880418,1.59390400799,1.57842921179,1.5629544156,1.5474796194,1.51653002702,1.50105523082,1.50105523082,1.48558043463,1.48558043463,1.47010563843,1.47010563843,1.45463084224,1.45463084224,1.43915604604,1.42368124985,1.42368124985,1.40820645366,1.40820645366,1.39273165746,1.37725686127,1.36178206507,1.33083247269,1.31535767649,1.2998828803,1.2998828803,1.2844080841,1.26893328791,1.26893328791,1.25345849172,1.23798369552,1.22250889933,1.20703410313,1.20703410313,1.19155930694,1.17608451075,1.17608451075,1.16060971455,1.16060971455,1.14513491836,1.12966012216,1.12966012216,1.11418532597,1.09871052978,1.08323573358,1.06776093739,1.06776093739,1.05228614119,1.05228614119,1.036811345,1.02133654881,1.02133654881,1.00586175261,0.990386956418,0.990386956418,0.974912160224,0.974912160224,0.95943736403,0.943962567836,0.943962567836,0.928487771642,0.913012975448,0.897538179254,0.897538179254,0.88206338306,0.866588586866,0.866588586866,0.851113790672,0.851113790672,0.835638994478,0.820164198284,0.820164198284,0.80468940209,0.80468940209,0.789214605896,0.789214605896,0.773739809702,0.758265013508,0.742790217313,0.727315421119,0.727315421119,0.711840624925,0.711840624925,0.696365828731,0.696365828731,0.680891032537,0.680891032537,0.665416236343,0.665416236343,0.649941440149,0.649941440149,0.634466643955,0.618991847761,0.618991847761,0.603517051567,0.603517051567,0.588042255373,0.588042255373,0.572567459179,0.572567459179,0.557092662985,0.557092662985,0.541617866791,0.526143070597,0.526143070597,0.510668274403,0.495193478209,0.495193478209,0.479718682015,0.464243885821,0.464243885821,0.448769089627,0.448769089627,0.433294293433,0.433294293433,0.433294293433,0.417819497239,0.417819497239,0.402344701045,0.386869904851,0.371395108657,0.371395108657,0.355920312463,0.355920312463,0.355920312463,0.340445516269,0.340445516269,0.324970720075,0.324970720075,0.309495923881,0.309495923881,0.294021127687,0.278546331493,0.278546331493,0.263071535299,0.263071535299,0.247596739104,0.247596739104,0.23212194291,0.23212194291,0.216647146716,0.216647146716,0.201172350522,0.201172350522,0.201172350522,0.185697554328,0.185697554328,0.170222758134,0.170222758134,0.15474796194,0.15474796194,0.139273165746,0.139273165746,0.123798369552,0.123798369552,0.108323573358,0.108323573358,0.0928487771642,0.0773739809702,0.0773739809702,0.0618991847761,0.0618991847761,0.0618991847761,0.0464243885821,0.0464243885821,0.0464243885821,0.0309495923881,0.0309495923881,0.015474796194,0.015474796194,0.0,0.0,-0.015474796194,-0.015474796194,-0.0309495923881,-0.0309495923881,-0.0309495923881,-0.0464243885821,-0.0464243885821,-0.0618991847761,-0.0618991847761,-0.0618991847761,-0.0773739809702,-0.0773739809702,-0.0928487771642,-0.108323573358,-0.108323573358,-0.123798369552,-0.123798369552,-0.123798369552,-0.139273165746,-0.139273165746,-0.139273165746,-0.15474796194,-0.15474796194,-0.170222758134,-0.170222758134,-0.185697554328,-0.185697554328,-0.201172350522,-0.201172350522,-0.216647146716,-0.216647146716,-0.216647146716,-0.23212194291,-0.23212194291,-0.247596739104,-0.247596739104,-0.263071535299,-0.263071535299,-0.278546331493,-0.278546331493,-0.294021127687,-0.294021127687,-0.294021127687,-0.309495923881,-0.309495923881,-0.309495923881,-0.324970720075,-0.324970720075,-0.340445516269,-0.340445516269,-0.340445516269,-0.355920312463,-0.371395108657,-0.371395108657,-0.371395108657,-0.386869904851,-0.386869904851,-0.386869904851,-0.402344701045,-0.402344701045,-0.402344701045,-0.417819497239,-0.417819497239,-0.433294293433,-0.433294293433,-0.433294293433,-0.448769089627,-0.448769089627,-0.464243885821,-0.464243885821,-0.464243885821,-0.479718682015,-0.479718682015,-0.479718682015,-0.495193478209,-0.495193478209,-0.495193478209,-0.510668274403,-0.510668274403,-0.526143070597,-0.526143070597,-0.526143070597,-0.541617866791,-0.541617866791,-0.557092662985,-0.557092662985,-0.557092662985,-0.572567459179,-0.572567459179,-0.572567459179,-0.588042255373,-0.588042255373,-0.603517051567,-0.603517051567,-0.618991847761,-0.618991847761,-0.634466643955,-0.634466643955,-0.634466643955,-0.649941440149,-0.649941440149,-0.649941440149,-0.665416236343,-0.665416236343,-0.665416236343,-0.680891032537,-0.680891032537,-0.696365828731,-0.696365828731,-0.696365828731,-0.711840624925,-0.711840624925,-0.727315421119,-0.727315421119,-0.727315421119,-0.742790217313,-0.742790217313,-0.742790217313,-0.742790217313,-0.758265013508,-0.758265013508,-0.773739809702,-0.773739809702,-0.789214605896,-0.789214605896,-0.789214605896,-0.789214605896,-0.80468940209,-0.80468940209,-0.80468940209,-0.820164198284,-0.820164198284,-0.820164198284,-0.835638994478,-0.835638994478,-0.835638994478,-0.851113790672,-0.851113790672,-0.851113790672,-0.866588586866,-0.866588586866,-0.866588586866,-0.88206338306,-0.88206338306,-0.88206338306,-0.897538179254,-0.897538179254,-0.913012975448,-0.913012975448,-0.928487771642,-0.928487771642,-0.928487771642,-0.943962567836,-0.943962567836,-0.943962567836
0.0,0.0,0.0,0.0,0.0,0.0,0.0,0.0,0.0,0.0,0.0,0.0,0.0,0.0,0.0,0.0,0.0,0.0,0.0,0.0,0.0,0.0,0.0,0.0,0.0,0.0,0.0,0.0,0.0,0.0,0.0,0.0,0.0,0.0,0.0,0.0,0.0,0.0,0.0,0.0,0.0,0.0,0.0,0.0,0.0,0.0,0.0,0.0,0.0,0.0,0.0,0.0,0.0,0.0,0.0,0.0,0.0,0.0,0.0,0.0,2.52239177963,2.50691698343,2.47596739104,2.46049259485,0.0,0.0,0.0,2.39859341007,2.35216902149,2.30574463291,2.25932024433,2.24384544813,2.22837065194,2.19742105955,2.18194626336,2.16647146716,2.16647146716,2.15099667097,2.15099667097,2.15099667097,2.15099667097,2.15099667097,2.13552187478,2.13552187478,2.10457228239,2.07362269,2.02719830142,1.99624870903,1.98077391284,1.98077391284,1.96529911664,1.96529911664,1.96529911664,1.94982432045,1.91887472806,1.90339993187,1.88792513567,1.87245033948,1.85697554328,1.85697554328,1.85697554328,1.85697554328,1.84150074709,1.8260259509,1.8105511547,1.77960156231,1.74865196993,1.73317717373,1.73317717373,1.71770237754,1.71770237754,1.70222758134,1.68675278515,1.68675278515,1.67127798896,1.65580319276,1.64032839657,1.64032839657,1.62485360037,1.60937880418,1.59390400799,1.5629544156,1.5474796194,1.53200482321,1.51653002702,1.50105523082,1.48558043463,1.48558043463,1.47010563843,1.47010563843,1.45463084224,1.45463084224,1.43915604604,1.42368124985,1.42368124985,1.40820645366,1.40820645366,1.39273165746,1.37725686127,1.36178206507,1.34630726888,1.33083247269,1.31535767649,1.2998828803,1.2844080841,1.2844080841,1.26893328791,1.25345849172,1.23798369552,1.22250889933,1.22250889933,1.20703410313,1.19155930694,1.19155930694,1.17608451075,1.17608451075,1.16060971455,1.16060971455,1.14513491836,1.12966012216,1.11418532597,1.09871052978,1.08323573358,1.06776093739,1.06776093739,1.05228614119,1.05228614119,1.036811345,1.036811345,1.02133654881,1.00586175261,1.00586175261,0.990386956418,0.974912160224,0.974912160224,0.95943736403,0.943962567836,0.943962567836,0.928487771642,0.913012975448,0.897538179254,0.897538179254,0.88206338306,0.866588586866,0.866588586866,0.851113790672,0.851113790672,0.835638994478,0.835638994478,0.820164198284,0.80468940209,0.80468940209,0.80468940209,0.789214605896,0.773739809702,0.758265013508,0.758265013508,0.742790217313,0.727315421119,0.711840624925,0.711840624925,0.696365828731,0.696365828731,0.696365828731,0.680891032537,0.680891032537,0.665416236343,0.649941440149,0.649941440149,0.634466643955,0.618991847761,0.618991847761,0.603517051567,0.603517051567,0.588042255373,0.588042255373,0.572567459179,0.572567459179,0.557092662985,0.557092662985,0.541617866791,0.526143070597,0.526143070597,0.510668274403,0.510668274403,0.495193478209,0.479718682015,0.464243885821,0.464243885821,0.448769089627,0.448769089627,0.448769089627,0.433294293433,0.433294293433,0.417819497239,0.417819497239,0.402344701045,0.386869904851,0.386869904851,0.371395108657,0.371395108657,0.355920312463,0.355920312463,0.340445516269,0.340445516269,0.324970720075,0.324970720075,0.309495923881,0.309495923881,0.294021127687,0.278546331493,0.278546331493,0.263071535299,0.263071535299,0.247596739104,0.247596739104,0.23212194291,0.23212194291,0.216647146716,0.216647146716,0.216647146716,0.201172350522,0.201172350522,0.185697554328,0.185697554328,0.170222758134,0.170222758134,0.15474796194,0.15474796194,0.139273165746,0.139273165746,0.123798369552,0.123798369552,0.108323573358,0.108323573358,0.0928487771642,0.0928487771642,0.0773739809702,0.0618991847761,0.0618991847761,0.0618991847761,0.0464243885821,0.0464243885821,0.0464243885821,0.0309495923881,0.0309495923881,0.015474796194,0.015474796194,0.0,0.0,-0.015474796194,-0.015474796194,-0.0309495923881,-0.0309495923881,-0.0309495923881,-0.0464243885821,-0.0464243885821,-0.0464243885821,-0.0618991847761,-0.0618991847761,-0.0773739809702,-0.0773739809702,-0.0928487771642,-0.108323573358,-0.108323573358,-0.123798369552,-0.123798369552,-0.123798369552,-0.139273165746,-0.139273165746,-0.139273165746,-0.15474796194,-0.15474796194,-0.170222758134,-0.170222758134,-0.185697554328,-0.185697554328,-0.201172350522,-0.201172350522,-0.216647146716,-0.216647146716,-0.216647146716,-0.23212194291,-0.23212194291,-0.247596739104,-0.247596739104,-0.263071535299,-0.263071535299,-0.278546331493,-0.278546331493,-0.278546331493,-0.294021127687,-0.294021127687,-0.294021127687,-0.309495923881,-0.309495923881,-0.324970720075,-0.324970720075,-0.324970720075,-0.340445516269,-0.340445516269,-0.355920312463,-0.355920312463,-0.371395108657,-0.371395108657,-0.386869904851,-0.386869904851,-0.386869904851,-0.402344701045,-0.402344701045,-0.402344701045,-0.417819497239,-0.417819497239,-0.433294293433,-0.433294293433,-0.433294293433,-0.448769089627,-0.448769089627,-0.464243885821,-0.464243885821,-0.464243885821,-0.479718682015,-0.479718682015,-0.479718682015,-0.495193478209,-0.495193478209,-0.495193478209,-0.510668274403,-0.510668274403,-0.510668274403,-0.526143070597,-0.526143070597,-0.541617866791,-0.541617866791,-0.557092662985,-0.557092662985,-0.557092662985,-0.572567459179,-0.572567459179,-0.572567459179,-0.588042255373,-0.588042255373,-0.603517051567,-0.603517051567,-0.618991847761,-0.618991847761,-0.634466643955,-0.634466643955,-0.634466643955,-0.649941440149,-0.649941440149,-0.649941440149,-0.665416236343,-0.665416236343,-0.665416236343,-0.680891032537,-0.680891032537,-0.680891032537,-0.696365828731,-0.696365828731,-0.711840624925,-0.711840624925,-0.711840624925,-0.727315421119,-0.727315421119,-0.727315421119,-0.742790217313,-0.742790217313,-0.742790217313,-0.758265013508,-0.758265013508,-0.773739809702,-0.773739809702,-0.773739809702,-0.789214605896,-0.789214605896,-0.789214605896,-0.80468940209,-0.80468940209,-0.80468940209,-0.80468940209,-0.820164198284,-0.820164198284,-0.820164198284,-0.835638994478,-0.835638994478,-0.835638994478,-0.851113790672,-0.851113790672,-0.851113790672,-0.866588586866,-0.866588586866,-0.88206338306,-0.88206338306,-0.88206338306,-0.897538179254,-0.897538179254,-0.897538179254,-0.913012975448,-0.913012975448,-0.928487771642,-0.928487771642,-0.943962567836,-0.943962567836,-0.943962567836
0.0,0.0,0.0,0.0,0.0,0.0,0.0,0.0,0.0,0.0,0.0,0.0,0.0,0.0,0.0,0.0,0.0,0.0,0.0,0.0,0.0,0.0,0.0,0.0,0.0,0.0,0.0,0.0,0.0,0.0,0.0,0.0,0.0,0.0,0.0,0.0,0.0,0.0,0.0,0.0,0.0,0.0,0.0,0.0,0.0,0.0,0.0,0.0,0.0,0.0,0.0,0.0,0.0,0.0,0.0,0.0,0.0,0.0,0.0,0.0,0.0,2.49144218724,2.47596739104,0.0,0.0,0.0,0.0,0.0,0.0,0.0,2.25932024433,2.24384544813,2.22837065194,2.19742105955,2.18194626336,2.18194626336,2.16647146716,2.16647146716,2.15099667097,2.15099667097,2.15099667097,2.15099667097,2.13552187478,2.13552187478,2.12004707858,2.08909748619,2.04267309761,2.01172350522,1.99624870903,1.98077391284,1.98077391284,1.96529911664,1.96529911664,1.94982432045,1.93434952425,1.90339993187,1.88792513567,1.87245033948,1.87245033948,1.85697554328,1.85697554328,1.85697554328,1.84150074709,1.8260259509,1.8105511547,1.77960156231,1.76412676612,1.74865196993,1.73317717373,1.71770237754,1.71770237754,1.70222758134,1.68675278515,1.68675278515,1.67127798896,1.65580319276,1.65580319276,1.64032839657,1.62485360037,1.60937880418,1.59390400799,1.57842921179,1.5474796194,1.53200482321,1.51653002702,1.50105523082,1.50105523082,1.48558043463,1.48558043463,1.47010563843,1.47010563843,1.45463084224,1.43915604604,1.43915604604,1.42368124985,1.40820645366,1.40820645366,1.39273165746,1.37725686127,1.36178206507,1.34630726888,1.33083247269,1.31535767649,1.2998828803,1.2998828803,1.2844080841,1.26893328791,1.26893328791,1.25345849172,1.23798369552,1.22250889933,1.20703410313,1.20703410313,1.19155930694,1.19155930694,1.17608451075,1.17608451075,1.16060971455,1.14513491836,1.12966012216,1.11418532597,1.09871052978,1.08323573358,1.06776093739,1.06776093739,1.05228614119,1.05228614119,1.036811345,1.036811345,1.02133654881,1.00586175261,1.00586175261,0.990386956418,0.990386956418,0.974912160224,0.95943736403,0.943962567836,0.943962567836,0.928487771642,0.913012975448,0.897538179254,0.897538179254,0.88206338306,0.88206338306,0.866588586866,0.866588586866,0.851113790672,0.835638994478,0.835638994478,0.820164198284,0.820164198284,0.80468940209,0.80468940209,0.789214605896,0.789214605896,0.773739809702,0.758265013508,0.742790217313,0.727315421119,0.727315421119,0.711840624925,0.711840624925,0.696365828731,0.696365828731,0.680891032537,0.680891032537,0.665416236343,0.665416236343,0.649941440149,0.634466643955,0.634466643955,0.618991847761,0.618991847761,0.603517051567,0.588042255373,0.588042255373,0.572567459179,0.572567459179,0.557092662985,0.557092662985,0.541617866791,0.541617866791,0.526143070597,0.510668274403,0.510668274403,0.495193478209,0.479718682015,0.479718682015,0.464243885821,0.464243885821,0.448769089627,0.448769089627,0.433294293433,0.433294293433,0.417819497239,0.417819497239,0.402344701045,0.386869904851,0.386869904851,0.371395108657,0.371395108657,0.355920312463,0.355920312463,0.340445516269,0.340445516269,0.324970720075,0.324970720075,0.309495923881,0.309495923881,0.294021127687,0.294021127687,0.278546331493,0.263071535299,0.263071535299,0.247596739104,0.247596739104,0.23212194291,0.23212194291,0.216647146716,0.216647146716,0.216647146716,0.201172350522,0.201172350522,0.185697554328,0.185697554328,0.170222758134,0.170222758134,0.15474796194,0.15474796194,0.139273165746,0.139273165746,0.123798369552,0.123798369552,0.108323573358,0.108323573358,0.0928487771642,0.0928487771642,0.0773739809702,0.0618991847761,0.0618991847761,0.0618991847761,0.0464243885821,0.0464243885821,0.0464243885821,0.0309495923881,0.0309495923881,0.015474796194,0.015474796194,0.0,0.0,-0.015474796194,-0.015474796194,-0.015474796194,-0.0309495923881,-0.0309495923881,-0.0464243885821,-0.0464243885821,-0.0464243885821,-0.0618991847761,-0.0618991847761,-0.0773739809702,-0.0773739809702,-0.0928487771642,-0.0928487771642,-0.108323573358,-0.123798369552,-0.123798369552,-0.123798369552,-0.139273165746,-0.139273165746,-0.139273165746,-0.15474796194,-0.15474796194,-0.15474796194,-0.170222758134,-0.170222758134,-0.185697554328,-0.201172350522,-0.201172350522,-0.216647146716,-0.216647146716,-0.216647146716,-0.23212194291,-0.23212194291,-0.247596739104,-0.247596739104,-0.263071535299,-0.263071535299,-0.278546331493,-0.278546331493,-0.278546331493,-0.294021127687,-0.294021127687,-0.294021127687,-0.309495923881,-0.309495923881,-0.309495923881,-0.324970720075,-0.324970720075,-0.340445516269,-0.340445516269,-0.355920312463,-0.355920312463,-0.371395108657,-0.371395108657,-0.371395108657,-0.386869904851,-0.386869904851,-0.386869904851,-0.402344701045,-0.402344701045,-0.417819497239,-0.417819497239,-0.417819497239,-0.433294293433,-0.433294293433,-0.448769089627,-0.448769089627,-0.448769089627,-0.464243885821,-0.464243885821,-0.464243885821,-0.479718682015,-0.479718682015,-0.479718682015,-0.495193478209,-0.495193478209,-0.510668274403,-0.510668274403,-0.510668274403,-0.526143070597,-0.526143070597,-0.541617866791,-0.541617866791,-0.557092662985,-0.557092662985,-0.557092662985,-0.572567459179,-0.572567459179,-0.572567459179,-0.588042255373,-0.588042255373,-0.603517051567,-0.603517051567,-0.618991847761,-0.618991847761,-0.618991847761,-0.634466643955,-0.634466643955,-0.649941440149,-0.649941440149,-0.649941440149,-0.665416236343,-0.665416236343,-0.665416236343,-0.680891032537,-0.680891032537,-0.680891032537,-0.696365828731,-0.696365828731,-0.696365828731,-0.711840624925,-0.711840624925,-0.727315421119,-0.727315421119,-0.727315421119,-0.742790217313,-0.742790217313,-0.742790217313,-0.758265013508,-0.758265013508,-0.773739809702,-0.773739809702,-0.773739809702,-0.789214605896,-0.789214605896,-0.789214605896,-0.789214605896,-0.80468940209,-0.80468940209,-0.80468940209,-0.820164198284,-0.820164198284,-0.820164198284,-0.835638994478,-0.835638994478,-0.835638994478,-0.851113790672,-0.851113790672,-0.851113790672,-0.866588586866,-0.866588586866,-0.88206338306,-0.88206338306,-0.88206338306,-0.897538179254,-0.897538179254,-0.897538179254,-0.913012975448,-0.913012975448,-0.928487771642,-0.928487771642,-0.943962567836,-0.943962567836,-0.943962567836
0.0,0.0,0.0,0.0,0.0,0.0,0.0,0.0,0.0,0.0,0.0,0.0,0.0,0.0,0.0,0.0,0.0,0.0,0.0,0.0,0.0,0.0,0.0,0.0,0.0,0.0,0.0,0.0,0.0,0.0,0.0,0.0,0.0,0.0,0.0,0.0,0.0,0.0,0.0,0.0,0.0,0.0,0.0,0.0,0.0,0.0,0.0,0.0,0.0,0.0,0.0,0.0,0.0,0.0,0.0,0.0,0.0,0.0,0.0,0.0,0.0,0.0,0.0,0.0,0.0,0.0,0.0,0.0,0.0,0.0,0.0,0.0,0.0,0.0,0.0,0.0,2.16647146716,2.16647146716,2.16647146716,2.15099667097,2.15099667097,2.15099667097,2.13552187478,2.13552187478,2.12004707858,2.08909748619,2.05814789381,2.01172350522,1.99624870903,1.98077391284,1.98077391284,1.96529911664,1.96529911664,1.94982432045,1.93434952425,1.91887472806,1.90339993187,1.88792513567,1.87245033948,1.87245033948,1.85697554328,1.85697554328,1.84150074709,1.8260259509,1.8105511547,1.77960156231,1.76412676612,1.74865196993,1.73317717373,1.73317717373,1.71770237754,1.70222758134,1.70222758134,1.68675278515,1.67127798896,1.65580319276,1.65580319276,1.64032839657,1.62485360037,1.60937880418,1.59390400799,1.57842921179,1.5629544156,1.5474796194,1.51653002702,1.50105523082,1.50105523082,1.48558043463,1.48558043463,1.47010563843,1.47010563843,1.45463084224,1.43915604604,1.43915604604,1.42368124985,1.40820645366,1.40820645366,1.39273165746,1.37725686127,1.36178206507,1.34630726888,1.33083247269,1.31535767649,1.31535767649,1.2998828803,1.2844080841,1.2844080841,1.26893328791,1.25345849172,1.23798369552,1.22250889933,1.20703410313,1.20703410313,1.19155930694,1.19155930694,1.17608451075,1.17608451075,1.16060971455,1.14513491836,1.12966012216,1.11418532597,1.09871052978,1.08323573358,1.08323573358,1.06776093739,1.06776093739,1.05228614119,1.036811345,1.036811345,1.02133654881,1.00586175261,1.00586175261,0.990386956418,0.990386956418,0.974912160224,0.95943736403,0.95943736403,0.943962567836,0.928487771642,0.913012975448,0.897538179254,0.897538179254,0.88206338306,0.88206338306,0.866588586866,0.866588586866,0.851113790672,0.851113790672,0.835638994478,0.820164198284,0.820164198284,0.80468940209,0.80468940209,0.789214605896,0.789214605896,0.773739809702,0.758265013508,0.742790217313,0.742790217313,0.727315421119,0.711840624925,0.711840624925,0.696365828731,0.696365828731,0.680891032537,0.680891032537,0.665416236343,0.665416236343,0.649941440149,0.634466643955,0.634466643955,0.618991847761,0.618991847761,0.603517051567,0.603517051567,0.588042255373,0.572567459179,0.572567459179,0.557092662985,0.557092662985,0.541617866791,0.541617866791,0.526143070597,0.510668274403,0.510668274403,0.495193478209,0.479718682015,0.479718682015,0.464243885821,0.464243885821,0.448769089627,0.448769089627,0.433294293433,0.433294293433,0.433294293433,0.417819497239,0.402344701045,0.386869904851,0.386869904851,0.371395108657,0.371395108657,0.355920312463,0.355920312463,0.340445516269,0.340445516269,0.340445516269,0.324970720075,0.309495923881,0.309495923881,0.294021127687,0.294021127687,0.278546331493,0.278546331493,0.263071535299,0.247596739104,0.247596739104,0.23212194291,0.23212194291,0.23212194291,0.216647146716,0.216647146716,0.201172350522,0.201172350522,0.185697554328,0.185697554328,0.170222758134,0.170222758134,0.15474796194,0.15474796194,0.139273165746,0.139273165746,0.123798369552,0.123798369552,0.108323573358,0.108323573358,0.0928487771642,0.0928487771642,0.0773739809702,0.0773739809702,0.0618991847761,0.0618991847761,0.0464243885821,0.0464243885821,0.0464243885821,0.0309495923881,0.0309495923881,0.015474796194,0.015474796194,0.0,0.0,-0.015474796194,-0.015474796194,-0.015474796194,-0.0309495923881,-0.0309495923881,-0.0309495923881,-0.0464243885821,-0.0464243885821,-0.0618991847761,-0.0618991847761,-0.0618991847761,-0.0773739809702,-0.0928487771642,-0.0928487771642,-0.108323573358,-0.108323573358,-0.123798369552,-0.123798369552,-0.139273165746,-0.139273165746,-0.139273165746,-0.139273165746,-0.15474796194,-0.15474796194,-0.170222758134,-0.170222758134,-0.185697554328,-0.185697554328,-0.201172350522,-0.201172350522,-0.216647146716,-0.216647146716,-0.23212194291,-0.23212194291,-0.23212194291,-0.247596739104,-0.247596739104,-0.263071535299,-0.263071535299,-0.278546331493,-0.278546331493,-0.294021127687,-0.294021127687,-0.294021127687,-0.309495923881,-0.309495923881,-0.309495923881,-0.324970720075,-0.324970720075,-0.340445516269,-0.340445516269,-0.340445516269,-0.355920312463,-0.355920312463,-0.371395108657,-0.371395108657,-0.386869904851,-0.386869904851,-0.386869904851,-0.402344701045,-0.402344701045,-0.417819497239,-0.417819497239,-0.417819497239,-0.433294293433,-0.433294293433,-0.448769089627,-0.448769089627,-0.448769089627,-0.464243885821,-0.464243885821,-0.464243885821,-0.479718682015,-0.479718682015,-0.479718682015,-0.495193478209,-0.495193478209,-0.510668274403,-0.510668274403,-0.510668274403,-0.526143070597,-0.526143070597,-0.541617866791,-0.541617866791,-0.557092662985,-0.557092662985,-0.557092662985,-0.572567459179,-0.572567459179,-0.572567459179,-0.588042255373,-0.588042255373,-0.603517051567,-0.603517051567,-0.603517051567,-0.618991847761,-0.618991847761,-0.634466643955,-0.634466643955,-0.634466643955,-0.649941440149,-0.649941440149,-0.665416236343,-0.665416236343,-0.665416236343,-0.680891032537,-0.680891032537,-0.680891032537,-0.696365828731,-0.696365828731,-0.696365828731,-0.711840624925,-0.711840624925,-0.727315421119,-0.727315421119,-0.727315421119,-0.742790217313,-0.742790217313,-0.742790217313,-0.758265013508,-0.758265013508,-0.758265013508,-0.773739809702,-0.773739809702,-0.773739809702,-0.789214605896,-0.789214605896,-0.789214605896,-0.789214605896,-0.80468940209,-0.80468940209,-0.80468940209,-0.820164198284,-0.820164198284,-0.835638994478,-0.835638994478,-0.835638994478,-0.851113790672,-0.851113790672,-0.851113790672,-0.866588586866,-0.866588586866,-0.866588586866,-0.88206338306,-0.88206338306,-0.897538179254,-0.897538179254,-0.897538179254,-0.913012975448,-0.913012975448,-0.928487771642,-0.928487771642,-0.943962567836,-0.943962567836,-0.943962567836
