0,0,0,0,0,0,0,0,0,0,0,0,0,0,0,0,0,0,0,0,0,0,0,0,0,0,0,0,0,0,0,0,0,0,0,0,0,0,0,0,0,0,0,0,0,0,0,0,0,0,0,0,0,0,0,0,0,0,0,0,0,0,0,0,0,0,0,0,0,0,0,0,0,0,0,0,0,0,0,0,0,0,0,0,0,0,0,0,0,0,0,0,0,0,0,0,0,0,0,0,0,0,0,0,0,0,0,0,0,0,0,0,0,0,0,0,0,0,0,0,0,0,0,0,0,0,0,0,0,0,0,0,0,0,0,0,0,0,0,0,0,0,0,0,0,0,0,0,0,0,0,0,0,0,0,0,0,0,0,0,0,0,0,0,0,0,0,0,0,0,0,0,0,0,0,0,0,0,0,0,0,0,0,0,0,0,0,0,0,0,0,0,0,0,0,0,0,0,0,0,0,0,0,0,0,0,0,0,0,0,0,0,0,0,0,0,0,0,0,0,0,0,0,0,0,0,0,388,387,386,386,385,383,382,380,380,379,378,378,377,376,376,375,374,373,372,371,371,370,369,369,368,367,366,365,365,364,363,363,362,361,360,360,359,358,358,357,357,356,356,355,355,354,354,354,353,351,351,349,349,349,348,347,346,345,345,344,343,343,342,341,340,340,339,339,338,338,337,337,336,335,335,334,334,333,333,332,332,331,330,330,329,328,328,327,327,326,326,325,325,324,324,323,323,322,322,321,321,320,320,319,318,318,317,317,316,315,315,314,314,313,313,312,312,311,311,310,310,309,309,308,308,307,307,306,306,305,305,304,304,303,303,302,302,301,301,300,300,299,299,298,298,297,297,296,296,296,295,295,294,294,294,293,293,292,292,291,291,290,289,289,289,288,288,287,287,287,286,286,285,285,285,284,284,283,283,282,282,281,281,280,280,280,279,279,278,278,277,277,277,276,276,276,275,275,275,274,274,273,273,272,272,271,271,270,270,270,269,269,269,268,268,267,267,267,266,266,265,265,265,264,264,263,263,263,262,262,261,261,260,260,260,259,259,259,258,258,258,257,257,256,256,256,255,255,255,254,254,254,253,253,253,252,252,251,251,250,250,249,249,249,248,248,248,247,247,247,246,246,245,245,245,245,244,244,244,243,243,242,242,241,241,241,240,240,240,240,239,239,239,238,238,238,237,237,237,236,236,236,235,235,235,234,234,233,233,233,232,232,232,231,231,231,230,230,230,229,229,229,229,228,228,228,227,227,227,226,226,226,225,225,225,224,224,224,223,223,223,222,222,222,221,221,221,220,220,220,219,219,219,218,218,218,217,217,217,217,216,216,216,216,216,216,216,216,215,215,215,216,0,0,0,0,0,0,0,0,0,0,0,0,0,0,0,0,0,0,0,0,0,0,0,0,0,0,0,0,0,0,0,0,0,0,0,0,0,0,0,0,0
0,0,0,0,0,0,0,0,0,0,0,0,0,0,0,0,0,0,0,0,0,0,0,0,0,0,0,0,0,0,0,0,0,0,0,0,0,0,0,0,0,0,0,0,0,0,0,0,0,0,0,0,0,0,0,0,0,0,0,0,0,0,0,0,0,0,0,0,0,0,0,0,0,0,0,0,0,0,0,0,0,0,0,0,0,0,0,0,0,0,0,0,0,0,0,0,0,0,0,0,0,0,0,0,0,0,0,0,0,0,0,0,0,0,0,0,0,0,0,0,0,0,0,0,0,0,0,0,0,0,0,0,0,0,0,0,0,0,0,0,0,0,0,0,0,0,0,0,0,0,0,0,0,0,0,0,0,0,0,0,0,0,0,0,0,0,0,0,0,0,0,0,0,0,0,0,0,0,0,0,0,0,0,0,0,0,0,0,0,0,0,0,0,0,0,0,0,0,0,0,0,0,0,0,0,0,0,0,0,0,0,0,0,0,0,0,0,0,0,0,0,0,0,0,0,387,387,387,386,386,385,384,383,381,380,379,379,378,378,377,376,376,375,374,373,372,372,371,370,369,369,368,367,366,366,365,364,363,363,362,361,360,360,359,358,358,357,357,356,356,355,354,354,355,355,353,351,350,349,348,349,348,347,346,345,345,344,344,343,342,341,341,340,339,339,338,338,337,337,336,335,335,334,334,333,333,332,332,331,330,330,329,329,328,328,327,327,326,326,325,325,324,323,323,322,322,321,321,320,320,319,318,318,317,317,316,316,315,314,314,313,313,312,312,311,311,310,310,309,309,308,308,307,307,306,306,305,305,304,304,303,303,302,302,301,301,301,300,299,299,298,298,297,297,296,296,296,295,295,295,294,294,293,293,292,292,291,291,290,290,289,289,288,288,287,287,287,286,286,285,285,285,284,284,283,283,283,282,282,281,281,280,280,279,279,278,278,278,277,277,276,276,276,275,275,275,274,274,273,273,272,272,271,271,270,270,270,269,269,269,268,268,267,267,267,266,266,265,265,265,264,264,263,263,263,262,262,261,261,261,260,260,259,259,259,258,258,258,257,257,256,256,256,255,255,255,254,254,254,253,253,253,252,252,251,251,250,250,250,249,249,248,248,248,247,247,247,246,246,246,245,245,245,244,244,244,243,243,242,242,241,241,241,241,240,240,240,239,239,239,238,238,238,237,237,237,236,236,236,235,235,235,234,234,234,233,233,232,232,232,231,231,231,231,230,230,230,229,229,229,228,228,228,227,227,227,226,226,226,225,225,225,224,224,224,223,223,223,222,222,222,221,221,221,221,220,220,220,219,219,218,218,218,217,217,217,217,216,216,216,216,216,216,216,216,216,216,216,216,0,0,0,0,0,0,0,0,0,0,0,0,0,0,0,0,0,0,0,0,0,0,0,0,0,0,0,0,0,0,0,0,0,0,0,0,0,0,0,0,0
0,0,0,0,0,0,0,0,0,0,0,0,0,0,0,0,0,0,0,0,0,0,0,0,0,0,0,0,0,0,0,0,0,0,0,0,0,0,0,0,0,0,0,0,0,0,0,0,0,0,0,0,0,0,0,0,0,0,0,0,0,0,0,0,0,0,0,0,0,0,0,0,0,0,0,0,0,0,0,0,0,0,0,0,0,0,0,0,0,0,0,0,0,0,0,0,0,0,0,0,0,0,0,0,0,0,0,0,0,0,0,0,0,0,0,0,0,0,0,0,0,0,0,0,0,0,0,0,0,0,0,0,0,0,0,0,0,0,0,0,0,0,0,0,0,0,0,0,0,0,0,0,0,0,0,0,0,0,0,0,0,0,0,0,0,0,0,0,0,0,0,0,0,0,0,0,0,0,0,0,0,0,0,0,0,0,0,0,0,0,0,0,0,0,0,0,0,0,0,0,0,0,0,0,0,0,0,0,0,0,0,0,0,0,0,0,0,0,0,0,0,0,0,388,387,387,387,386,386,385,385,384,383,381,380,379,379,378,378,377,376,376,375,374,373,373,372,371,370,370,369,368,367,366,366,365,364,364,363,362,361,361,360,359,359,358,358,357,357,356,355,355,354,355,354,353,349,349,349,349,349,348,347,346,345,345,344,344,343,342,342,341,340,340,339,339,338,337,337,336,335,335,334,334,333,333,332,332,331,331,330,329,329,328,328,327,327,326,326,325,325,324,323,323,322,322,321,321,320,320,319,319,318,317,317,316,316,315,314,314,313,313,312,312,312,311,311,310,309,309,308,308,307,307,306,306,305,305,304,304,304,303,303,302,302,301,301,300,300,299,298,298,297,297,297,296,296,295,295,295,294,294,293,293,292,292,291,291,290,290,289,289,288,288,288,287,287,286,286,286,285,285,284,284,283,283,283,282,282,281,281,280,280,279,279,279,278,278,277,277,276,276,276,275,275,275,274,274,273,273,272,272,271,271,271,270,270,269,269,269,268,268,268,267,267,266,266,266,265,265,264,264,264,263,263,262,262,261,261,261,260,260,260,259,259,259,258,258,257,257,257,256,256,255,255,255,254,254,254,253,253,253,252,252,251,251,251,250,250,249,249,249,248,248,248,247,247,246,246,246,245,245,245,244,244,244,243,243,242,242,242,241,241,241,240,240,240,240,239,239,238,238,238,237,237,237,236,236,236,235,235,235,234,234,234,233,233,233,232,232,232,231,231,231,230,230,230,229,229,229,228,228,228,227,227,227,226,226,226,225,225,225,224,224,224,223,223,223,222,222,222,221,221,221,221,220,220,220,219,219,218,218,218,217,217,217,217,216,216,216,216,216,216,216,216,216,216,216,216,0,0,0,0,0,0,0,0,0,0,0,0,0,0,0,0,0,0,0,0,0,0,0,0,0,0,0,0,0,0,0,0,0,0,0,0,0,0,0,0,0
0,0,0,0,0,0,0,0,0,0,0,0,0,0,0,0,0,0,0,0,0,0,0,0,0,0,0,0,0,0,0,0,0,0,0,0,0,0,0,0,0,0,0,0,0,0,0,0,0,0,0,0,0,0,0,0,0,0,0,0,0,0,0,0,0,0,0,0,0,0,0,0,0,0,0,0,0,0,0,0,0,0,0,0,0,0,0,0,0,0,0,0,0,0,0,0,0,0,0,0,0,0,0,0,0,0,0,0,0,0,0,0,0,0,0,0,0,0,0,0,0,0,0,0,0,0,0,0,0,0,0,0,0,0,0,0,0,0,0,0,0,0,0,0,0,0,0,0,0,0,0,0,0,0,0,0,0,0,0,0,0,0,0,0,0,0,0,0,0,0,0,0,0,0,0,0,0,0,0,0,0,0,0,0,0,0,0,0,0,0,0,0,0,0,0,0,0,0,0,0,0,0,0,0,0,0,0,0,0,0,0,0,0,0,0,396,395,394,392,391,391,390,389,388,387,387,387,386,386,385,385,384,383,382,380,379,379,378,377,377,376,376,375,374,374,373,372,371,371,370,369,368,367,366,366,365,364,364,363,362,362,361,360,359,359,358,358,357,357,356,355,355,354,355,354,352,349,349,348,349,349,348,347,346,346,345,344,344,343,342,342,341,340,340,339,339,338,338,337,336,335,335,334,334,334,333,333,332,331,331,330,329,329,328,328,327,327,327,326,326,325,324,324,323,323,322,322,321,321,320,319,319,318,317,317,316,316,315,315,314,314,313,313,312,312,311,311,310,310,309,309,308,307,307,306,306,305,305,305,304,304,303,303,302,302,301,301,300,300,299,299,298,298,297,297,296,296,296,295,295,294,294,293,293,292,292,291,291,290,290,289,289,288,288,288,287,287,286,286,286,285,285,284,284,284,283,283,282,282,281,281,280,280,280,279,279,278,278,277,277,277,276,276,276,275,275,274,274,274,273,272,272,272,271,271,270,270,270,269,269,268,268,268,267,267,266,266,266,265,265,264,264,264,263,263,262,262,261,261,261,260,260,260,259,259,259,258,258,258,257,257,256,256,256,255,255,254,254,254,253,253,253,252,252,251,251,251,250,250,249,249,249,248,248,248,247,247,247,246,246,245,245,245,244,244,244,243,243,242,242,242,241,241,241,240,240,240,240,239,239,239,238,238,237,237,237,236,236,236,235,235,235,234,234,234,233,233,233,232,232,232,231,231,231,230,230,230,229,229,229,229,228,228,228,227,227,226,226,226,225,225,225,224,224,224,223,223,223,222,222,222,221,221,221,221,220,220,220,219,219,218,218,218,218,217,217,217,217,216,216,216,216,216,216,216,216,216,216,216,0,0,0,0,0,0,0,0,0,0,0,0,0,0,0,0,0,0,0,0,0,0,0,0,0,0,0,0,0,0,0,0,0,0,0,0,0,0,0,0,0
0,0,0,0,0,0,0,0,0,0,0,0,0,0,0,0,0,0,0,0,0,0,0,0,0,0,0,0,0,0,0,0,0,0,0,0,0,0,0,0,0,0,0,0,0,0,0,0,0,0,0,0,0,0,0,0,0,0,0,0,0,0,0,0,0,0,0,0,0,0,0,0,0,0,0,0,0,0,0,0,0,0,0,0,0,0,0,0,0,0,0,0,0,0,0,0,0,0,0,0,0,0,0,0,0,0,0,0,0,0,0,0,0,0,0,0,0,0,0,0,0,0,0,0,0,0,0,0,0,0,0,0,0,0,0,0,0,0,0,0,0,0,0,0,0,0,0,0,0,0,0,0,0,0,0,0,0,0,0,0,0,0,0,0,0,0,0,0,0,0,0,0,0,0,0,0,0,0,0,0,0,0,0,0,0,0,0,0,0,0,0,0,0,0,0,0,0,0,0,0,0,0,0,0,0,0,0,0,0,399,399,398,398,397,397,396,395,394,392,391,391,390,389,388,387,387,386,386,386,385,385,384,383,382,381,380,379,378,377,377,376,376,375,374,374,373,372,372,371,370,369,368,367,367,366,365,364,364,363,362,362,361,360,360,359,358,358,357,357,356,356,355,354,354,354,352,352,350,349,349,349,348,347,346,346,345,345,344,343,343,342,341,341,340,339,339,338,338,337,336,335,335,335,334,334,333,333,332,332,331,330,330,329,328,328,328,327,327,326,326,325,325,324,323,323,322,322,321,321,320,319,319,318,318,317,317,316,315,315,314,314,313,313,312,312,311,311,310,310,309,309,308,307,307,306,306,306,305,305,304,304,303,303,302,302,301,301,300,300,299,299,298,298,297,297,296,296,296,295,295,294,294,293,293,292,292,291,291,290,290,289,289,288,288,288,287,287,287,286,286,285,285,284,284,284,283,283,282,282,281,281,280,280,280,279,279,278,278,278,277,277,276,276,276,275,275,274,274,274,273,273,272,272,271,271,270,270,270,269,269,268,268,268,267,267,267,266,266,265,265,264,264,264,263,263,262,262,262,261,261,260,260,260,259,259,259,258,258,258,257,257,256,256,256,255,255,255,254,254,253,253,253,252,252,251,251,251,250,250,249,249,249,248,248,248,247,247,247,246,246,245,245,245,244,244,244,243,243,242,242,242,241,241,241,240,240,240,240,239,239,239,238,238,238,237,237,237,236,236,235,235,235,234,234,234,233,233,233,232,232,232,231,231,231,230,230,230,229,229,229,229,228,228,228,227,227,227,226,226,226,225,225,225,224,224,224,223,223,222,222,222,221,221,221,221,220,220,220,219,219,219,218,218,218,217,217,217,217,216,216,216,216,216,216,216,216,216,215,215,0,0,0,0,0,0,0,0,0,0,0,0,0,0,0,0,0,0,0,0,0,0,0,0,0,0,0,0,0,0,0,0,0,0,0,0,0,0,0,0,0
0,0,0,0,0,0,0,0,0,0,0,0,0,0,0,0,0,0,0,0,0,0,0,0,0,0,0,0,0,0,0,0,0,0,0,0,0,0,0,0,0,0,0,0,0,0,0,0,0,0,0,0,0,0,0,0,0,0,0,0,0,0,0,0,0,0,0,0,0,0,0,0,0,0,0,0,0,0,0,0,0,0,0,0,0,0,0,0,0,0,0,0,0,0,0,0,0,0,0,0,0,0,0,0,0,0,0,0,0,0,0,0,0,0,0,0,0,0,0,0,0,0,0,0,0,0,0,0,0,0,0,0,0,0,0,0,0,0,0,0,0,0,0,0,0,0,0,0,0,0,0,0,0,0,0,0,0,0,0,0,0,0,0,0,0,0,0,0,0,0,0,0,0,0,0,0,0,0,0,0,0,0,0,0,0,0,0,0,0,0,0,0,0,0,0,0,0,0,0,0,0,0,0,0,0,0,404,402,401,400,399,399,398,398,397,396,395,394,393,392,391,390,390,388,387,387,386,386,386,385,385,384,383,382,381,380,379,378,378,377,376,376,375,375,374,373,373,372,371,370,370,369,368,367,366,365,365,364,363,363,362,361,360,360,359,359,358,357,357,356,356,355,355,354,354,353,352,351,350,349,349,348,347,346,346,345,345,344,344,343,342,341,341,340,340,339,338,338,337,336,335,335,335,334,334,333,333,332,332,331,330,330,329,329,328,328,327,327,326,326,325,325,324,323,323,322,322,321,321,320,319,319,318,318,317,317,316,316,315,314,314,313,313,312,312,311,311,310,310,309,309,308,308,307,307,306,306,305,305,304,304,303,303,302,302,301,301,300,300,299,299,298,298,297,297,297,296,296,295,295,294,294,293,293,292,292,291,291,290,290,289,289,289,288,288,287,287,287,286,286,285,285,285,284,284,283,283,282,282,281,281,281,280,280,279,279,279,278,278,277,277,276,276,276,275,275,274,274,274,273,273,272,272,271,271,270,270,270,269,269,269,268,268,267,267,267,266,266,265,265,265,264,264,263,263,262,262,262,261,261,260,260,260,259,259,259,258,258,258,257,257,256,256,256,255,255,255,254,254,253,253,253,252,252,252,251,251,250,250,250,249,249,248,248,248,248,247,247,246,246,245,245,245,245,244,244,243,243,243,242,242,241,241,241,241,240,240,240,239,239,239,238,238,238,237,237,237,236,236,235,235,235,234,234,234,233,233,233,232,232,232,231,231,231,230,230,230,229,229,229,229,228,228,228,227,227,227,226,226,226,225,225,225,224,224,224,223,223,222,222,222,222,221,221,221,220,220,220,219,219,219,218,218,218,217,217,217,217,216,216,216,216,216,216,216,216,215,215,215,0,0,0,0,0,0,0,0,0,0,0,0,0,0,0,0,0,0,0,0,0,0,0,0,0,0,0,0,0,0,0,0,0,0,0,0,0,0,0,0,0
0,0,0,0,0,0,0,0,0,0,0,0,0,0,0,0,0,0,0,0,0,0,0,0,0,0,0,0,0,0,0,0,0,0,0,0,0,0,0,0,0,0,0,0,0,0,0,0,0,0,0,0,0,0,0,0,0,0,0,0,0,0,0,0,0,0,0,0,0,0,0,0,0,0,0,0,0,0,0,0,0,0,0,0,0,0,0,0,0,0,0,0,0,0,0,0,0,0,0,0,0,0,0,0,0,0,0,0,0,0,0,0,0,0,0,0,0,0,0,0,0,0,0,0,0,0,0,0,0,0,0,0,0,0,0,0,0,0,0,0,0,0,0,0,0,0,0,0,0,0,0,0,0,0,0,0,0,0,0,0,0,0,0,0,0,0,0,0,0,0,0,0,0,0,0,0,0,0,0,0,0,0,0,0,0,0,0,0,0,0,0,0,0,0,0,0,0,0,0,0,0,406,406,406,405,404,404,403,401,400,399,399,398,398,397,396,395,394,393,392,391,391,390,389,388,387,387,386,386,385,385,384,383,382,381,380,379,378,378,377,377,376,375,375,374,373,373,372,372,371,370,369,368,367,366,365,365,364,363,363,362,361,361,360,359,359,358,358,357,356,356,355,355,354,353,353,352,352,351,350,349,348,347,347,346,346,345,344,344,343,342,341,341,340,340,339,339,338,337,336,336,335,335,334,334,333,333,332,332,331,331,330,329,329,328,328,327,327,327,326,325,325,324,324,323,323,322,322,321,320,320,319,318,318,317,317,316,316,315,315,314,314,313,312,312,312,311,310,310,309,309,308,308,307,307,306,306,305,305,304,304,303,303,302,302,302,301,301,300,299,299,299,298,298,297,297,296,296,295,295,294,294,294,293,292,292,291,291,290,290,290,289,289,288,288,288,287,287,286,286,285,285,285,284,284,283,283,282,282,281,281,281,280,280,280,279,279,278,278,277,277,277,276,276,275,275,274,274,274,273,273,272,272,271,271,270,270,270,269,269,269,268,268,267,267,267,266,266,266,265,265,264,264,263,263,262,262,262,261,261,260,260,260,259,259,259,258,258,258,257,257,256,256,256,255,255,255,254,254,253,253,253,252,252,252,251,251,250,250,250,249,249,249,248,248,248,247,247,246,246,246,245,245,245,244,244,243,243,243,242,242,242,241,241,241,240,240,240,239,239,239,238,238,238,237,237,237,236,236,235,235,235,234,234,234,233,233,233,232,232,232,231,231,231,230,230,230,230,229,229,229,228,228,228,227,227,227,226,226,226,225,225,225,224,224,224,223,223,223,222,222,222,221,221,221,220,220,220,219,219,219,218,218,218,217,217,217,217,217,216,216,216,216,216,216,216,216,215,215,0,0,0,0,0,0,0,0,0,0,0,0,0,0,0,0,0,0,0,0,0,0,0,0,0,0,0,0,0,0,0,0,0,0,0,0,0,0,0,0,0
0,0,0,0,0,0,0,0,0,0,0,0,0,0,0,0,0,0,0,0,0,0,0,0,0,0,0,0,0,0,0,0,0,0,0,0,0,0,0,0,0,0,0,0,0,0,0,0,0,0,0,0,0,0,0,0,0,0,0,0,0,0,0,0,0,0,0,0,0,0,0,0,0,0,0,0,0,0,0,0,0,0,0,0,0,0,0,0,0,0,0,0,0,0,0,0,0,0,0,0,0,0,0,0,0,0,0,0,0,0,0,0,0,0,0,0,0,0,0,0,0,0,0,0,0,0,0,0,0,0,0,0,0,0,0,0,0,0,0,0,0,0,0,0,0,0,0,0,0,0,0,0,0,0,0,0,0,0,0,0,0,0,0,0,0,0,0,0,0,0,0,0,0,0,0,0,0,0,0,0,0,0,0,0,0,0,0,0,0,0,0,0,0,0,0,415,414,412,410,408,407,406,406,406,405,405,404,403,402,401,400,399,399,398,397,396,395,394,393,392,392,391,390,389,388,388,387,386,386,386,385,384,383,382,381,380,379,379,378,377,377,376,376,375,374,373,373,372,372,371,370,369,368,367,366,366,365,364,364,363,362,361,361,360,359,359,358,358,357,357,356,355,355,354,353,353,352,352,351,350,349,348,348,347,346,346,345,345,344,343,342,342,341,340,340,339,339,338,337,336,336,335,335,334,334,333,333,332,332,331,331,330,330,329,329,328,328,327,327,326,326,325,324,324,323,323,322,322,321,320,320,319,318,318,317,317,316,316,315,315,314,314,313,313,312,312,311,311,310,310,309,308,308,307,307,306,306,305,305,304,304,304,303,302,302,302,301,301,300,300,299,299,298,298,297,297,296,296,296,295,295,294,294,293,293,292,292,291,291,290,290,289,289,288,288,288,287,287,286,286,286,285,285,284,284,283,283,283,282,282,281,281,280,280,280,279,279,278,278,278,277,277,276,276,275,275,274,274,274,273,273,272,272,271,271,271,270,270,269,269,269,268,268,268,267,267,266,266,266,265,265,264,264,263,263,262,262,262,261,261,260,260,260,260,259,259,258,258,258,257,257,257,256,256,255,255,255,254,254,254,253,253,252,252,252,251,251,251,250,250,249,249,249,248,248,248,247,247,246,246,246,245,245,245,244,244,244,243,243,242,242,242,241,241,241,240,240,240,239,239,239,238,238,238,237,237,237,236,236,235,235,235,234,234,234,233,233,233,232,232,232,231,231,231,231,230,230,230,229,229,229,228,228,228,227,227,227,226,226,226,225,225,225,224,224,224,223,223,223,222,222,222,221,221,221,220,220,220,220,219,219,218,218,218,217,217,217,217,217,216,216,216,216,216,216,216,216,215,215,0,0,0,0,0,0,0,0,0,0,0,0,0,0,0,0,0,0,0,0,0,0,0,0,0,0,0,0,0,0,0,0,0,0,0,0,0,0,0,0,0
0,0,0,0,0,0,0,0,0,0,0,0,0,0,0,0,0,0,0,0,0,0,0,0,0,0,0,0,0,0,0,0,0,0,0,0,0,0,0,0,0,0,0,0,0,0,0,0,0,0,0,0,0,0,0,0,0,0,0,0,0,0,0,0,0,0,0,0,0,0,0,0,0,0,0,0,0,0,0,0,0,0,0,0,0,0,0,0,0,0,0,0,0,0,0,0,0,0,0,0,0,0,0,0,0,0,0,0,0,0,0,0,0,0,0,0,0,0,0,0,0,0,0,0,0,0,0,0,0,0,0,0,0,0,0,0,0,0,0,0,0,0,0,0,0,0,0,0,0,0,0,0,0,0,0,0,0,0,0,0,0,0,0,0,0,0,0,0,0,0,0,0,0,0,0,0,0,0,0,0,0,0,0,0,0,0,0,0,0,418,417,417,417,416,416,415,414,412,410,408,407,407,406,406,405,405,404,403,402,401,400,399,399,398,397,396,395,394,393,393,392,391,390,390,389,388,387,387,386,386,385,384,384,382,381,380,379,379,378,378,377,376,376,375,374,374,373,372,372,371,370,369,368,367,367,366,365,365,364,363,362,361,361,360,359,359,358,358,357,357,356,355,355,354,353,353,352,352,351,350,349,349,348,347,346,346,345,345,344,343,342,342,341,340,340,339,339,338,337,336,336,335,335,334,334,333,333,332,332,331,331,330,330,329,329,328,328,327,327,326,326,325,324,324,323,323,322,322,321,321,320,319,319,318,318,317,316,316,315,315,314,314,313,313,312,312,311,311,310,310,309,308,308,307,307,306,306,305,305,305,304,304,303,303,302,302,301,301,300,300,299,299,298,298,297,297,297,296,296,295,295,294,294,293,293,292,292,291,291,290,290,289,289,289,288,288,287,287,287,286,286,285,285,284,284,283,283,283,282,282,281,281,280,280,280,279,279,278,278,278,277,277,276,276,275,275,275,274,274,273,273,272,272,271,271,271,270,270,270,269,269,268,268,268,267,267,266,266,266,265,265,264,264,263,263,262,262,262,261,261,261,260,260,260,259,259,259,258,258,257,257,257,256,256,256,255,255,254,254,254,253,253,252,252,252,251,251,251,250,250,249,249,249,248,248,248,247,247,246,246,246,245,245,245,244,244,244,243,243,242,242,242,241,241,241,241,240,240,240,239,239,238,238,238,237,237,237,236,236,236,235,235,234,234,234,233,233,233,232,232,232,231,231,231,231,230,230,230,229,229,229,228,228,228,227,227,227,226,226,226,225,225,225,224,224,224,223,223,223,222,222,222,221,221,221,220,220,220,220,219,219,218,218,218,217,217,217,217,217,216,216,216,216,216,216,216,216,216,215,0,0,0,0,0,0,0,0,0,0,0,0,0,0,0,0,0,0,0,0,0,0,0,0,0,0,0,0,0,0,0,0,0,0,0,0,0,0,0,0,0
0,0,0,0,0,0,0,0,0,0,0,0,0,0,0,0,0,0,0,0,0,0,0,0,0,0,0,0,0,0,0,0,0,0,0,0,0,0,0,0,0,0,0,0,0,0,0,0,0,0,0,0,0,0,0,0,0,0,0,0,0,0,0,0,0,0,0,0,0,0,0,0,0,0,0,0,0,0,0,0,0,0,0,0,0,0,0,0,0,0,0,0,0,0,0,0,0,0,0,0,0,0,0,0,0,0,0,0,0,0,0,0,0,0,0,0,0,0,0,0,0,0,0,0,0,0,0,0,0,0,0,0,0,0,0,0,0,0,0,0,0,0,0,0,0,0,0,0,0,0,0,0,0,0,0,0,0,0,0,0,0,0,0,0,0,0,0,0,0,0,0,0,0,0,0,0,0,0,0,0,0,0,0,0,0,424,423,421,419,418,417,417,417,417,416,415,414,412,410,408,408,407,406,406,406,405,404,403,402,401,401,400,399,398,397,396,395,394,394,393,392,391,391,390,389,388,387,387,386,386,385,385,384,383,381,380,380,379,378,378,377,377,376,375,374,374,373,373,372,371,370,369,368,368,367,366,365,365,364,363,362,362,361,360,359,359,358,358,357,357,356,355,355,354,353,353,352,352,351,350,350,349,348,347,347,346,346,345,344,343,343,342,341,341,340,340,339,338,337,337,336,335,335,334,334,333,333,333,332,331,331,330,330,329,329,328,328,327,327,326,326,325,325,324,324,323,323,322,321,321,320,319,319,318,318,317,317,316,316,315,315,314,313,313,312,312,311,311,310,310,309,309,308,307,307,306,306,305,305,305,304,304,303,303,302,302,301,301,300,300,299,299,298,298,298,297,297,296,296,295,295,294,294,293,293,292,292,291,291,290,290,289,289,289,288,288,288,287,287,286,286,285,285,284,284,283,283,283,282,282,281,281,281,280,280,279,279,279,278,278,277,277,276,276,275,275,275,274,274,273,273,272,272,271,271,271,270,270,270,269,269,268,268,268,267,267,266,266,266,265,265,264,264,263,263,263,262,262,261,261,261,260,260,260,259,259,259,258,258,257,257,257,256,256,256,255,255,254,254,254,253,253,252,252,252,252,251,251,250,250,249,249,249,248,248,248,247,247,247,246,246,245,245,245,244,244,244,243,243,242,242,242,242,241,241,241,240,240,240,239,239,239,238,238,237,237,237,236,236,236,235,235,234,234,234,234,233,233,232,232,232,232,231,231,231,230,230,230,229,229,229,228,228,228,227,227,227,226,226,226,225,225,225,224,224,224,223,223,223,222,222,222,221,221,221,220,220,220,220,219,219,218,218,218,217,217,217,217,217,216,216,216,216,216,216,216,216,216,216,0,0,0,0,0,0,0,0,0,0,0,0,0,0,0,0,0,0,0,0,0,0,0,0,0,0,0,0,0,0,0,0,0,0,0,0,0,0,0,0,0
0,0,0,0,0,0,0,0,0,0,0,0,0,0,0,0,0,0,0,0,0,0,0,0,0,0,0,0,0,0,0,0,0,0,0,0,0,0,0,0,0,0,0,0,0,0,0,0,0,0,0,0,0,0,0,0,0,0,0,0,0,0,0,0,0,0,0,0,0,0,0,0,0,0,0,0,0,0,0,0,0,0,0,0,0,0,0,0,0,0,0,0,0,0,0,0,0,0,0,0,0,0,0,0,0,0,0,0,0,0,0,0,0,0,0,0,0,0,0,0,0,0,0,0,0,0,0,0,0,0,0,0,0,0,0,0,0,0,0,0,0,0,0,0,0,0,0,0,0,0,0,0,0,0,0,0,0,0,0,0,0,0,0,0,0,0,0,0,0,0,0,0,0,0,0,0,0,0,0,0,0,427,426,426,425,424,423,421,419,418,418,417,417,417,416,415,414,412,410,409,408,407,407,406,406,405,404,403,403,402,401,400,399,398,398,397,395,395,394,393,392,392,391,390,389,388,388,387,387,386,385,385,384,383,382,380,380,379,378,378,377,377,376,375,375,374,373,373,372,371,371,370,369,368,367,366,365,365,364,363,362,362,361,360,360,359,358,358,357,357,356,356,355,354,353,353,352,352,351,351,350,349,348,348,347,346,346,345,344,343,343,342,341,341,340,340,339,338,338,337,336,336,335,335,334,334,333,333,332,332,331,331,330,329,329,328,328,327,327,326,326,325,325,324,324,323,323,322,321,321,320,319,319,318,318,317,317,316,316,315,315,314,313,313,313,312,312,311,311,310,309,309,308,307,307,306,306,306,305,305,304,304,303,303,302,302,301,301,300,300,299,299,299,298,298,297,297,296,296,295,295,294,294,293,293,292,292,291,291,291,290,290,289,289,288,288,288,287,287,286,286,286,285,285,284,284,283,283,282,282,281,281,281,280,280,279,279,279,278,278,277,277,276,276,275,275,275,274,274,273,273,272,272,272,271,271,271,270,270,269,269,269,268,268,267,267,267,266,266,265,265,264,264,263,263,263,262,262,262,261,261,260,260,260,259,259,259,258,258,258,257,257,256,256,256,255,255,255,254,254,253,253,253,252,252,252,251,251,250,250,249,249,249,248,248,248,247,247,247,246,246,245,245,245,245,244,244,243,243,243,242,242,242,241,241,241,240,240,240,239,239,239,238,238,237,237,237,236,236,236,235,235,235,234,234,233,233,233,232,232,232,232,231,231,231,230,230,230,229,229,229,228,228,228,227,227,227,226,226,226,225,225,225,224,224,224,223,223,223,222,222,222,221,221,221,221,220,220,220,219,219,218,218,218,217,217,217,217,217,217,216,216,216,216,216,216,216,216,216,0,0,0,0,0,0,0,0,0,0,0,0,0,0,0,0,0,0,0,0,0,0,0,0,0,0,0,0,0,0,0,0,0,0,0,0,0,0,0,0,0
0,0,0,0,0,0,0,0,0,0,0,0,0,0,0,0,0,0,0,0,0,0,0,0,0,0,0,0,0,0,0,0,0,0,0,0,0,0,0,0,0,0,0,0,0,0,0,0,0,0,0,0,0,0,0,0,0,0,0,0,0,0,0,0,0,0,0,0,0,0,0,0,0,0,0,0,0,0,0,0,0,0,0,0,0,0,0,0,0,0,0,0,0,0,0,0,0,0,0,0,0,0,0,0,0,0,0,0,0,0,0,0,0,0,0,0,0,0,0,0,0,0,0,0,0,0,0,0,0,0,0,0,0,0,0,0,0,0,0,0,0,0,0,0,0,0,0,0,0,0,0,0,0,0,0,0,0,0,0,0,0,0,0,0,0,0,0,0,0,0,0,0,0,0,0,435,435,434,432,429,428,427,426,426,425,424,423,421,419,418,418,417,417,417,416,415,414,412,411,409,408,408,407,406,406,405,404,404,403,402,401,400,400,399,398,397,396,395,394,393,392,392,391,390,390,389,388,387,387,386,386,385,384,383,382,381,380,379,378,378,377,377,376,376,375,374,374,373,372,371,371,370,369,368,367,366,366,365,364,363,363,362,361,360,360,359,359,358,358,357,356,356,355,354,353,353,352,352,351,351,350,349,349,348,347,347,346,345,344,344,343,342,342,341,341,340,339,339,338,337,336,336,335,335,334,334,333,333,332,332,331,331,330,330,329,328,328,327,327,326,326,325,325,324,324,323,323,322,322,321,320,320,319,318,318,317,317,316,316,315,315,314,314,313,313,312,312,311,311,310,310,309,308,307,307,306,306,306,305,305,304,304,303,303,302,302,301,301,300,300,299,299,299,298,298,297,297,296,296,295,295,294,294,293,293,292,292,292,291,291,290,290,289,289,288,288,288,287,287,286,286,286,285,285,284,284,283,283,282,282,281,281,281,280,280,279,279,279,278,278,277,277,276,276,276,275,275,274,274,273,273,273,272,272,271,271,271,270,270,269,269,269,268,268,267,267,267,266,266,265,265,264,264,264,263,263,262,262,262,261,261,261,260,260,260,259,259,258,258,258,257,257,256,256,256,255,255,255,254,254,253,253,253,252,252,252,251,251,250,250,249,249,249,248,248,248,248,247,247,246,246,246,245,245,245,244,244,244,243,243,242,242,242,241,241,241,241,240,240,239,239,239,238,238,237,237,237,236,236,236,235,235,235,234,234,233,233,233,232,232,232,232,231,231,231,230,230,230,229,229,229,228,228,228,227,227,226,226,226,226,225,225,225,224,224,224,223,223,223,222,222,222,221,221,221,220,220,220,220,219,219,218,218,218,217,217,217,217,217,217,216,216,216,216,216,216,216,216,216,0,0,0,0,0,0,0,0,0,0,0,0,0,0,0,0,0,0,0,0,0,0,0,0,0,0,0,0,0,0,0,0,0,0,0,0,0,0,0,0,0
0,0,0,0,0,0,0,0,0,0,0,0,0,0,0,0,0,0,0,0,0,0,0,0,0,0,0,0,0,0,0,0,0,0,0,0,0,0,0,0,0,0,0,0,0,0,0,0,0,0,0,0,0,0,0,0,0,0,0,0,0,0,0,0,0,0,0,0,0,0,0,0,0,0,0,0,0,0,0,0,0,0,0,0,0,0,0,0,0,0,0,0,0,0,0,0,0,0,0,0,0,0,0,0,0,0,0,0,0,0,0,0,0,0,0,0,0,0,0,0,0,0,0,0,0,0,0,0,0,0,0,0,0,0,0,0,0,0,0,0,0,0,0,0,0,0,0,0,0,0,0,0,0,0,0,0,0,0,0,0,0,0,0,0,0,0,0,0,0,0,0,437,437,436,436,435,435,434,432,430,428,427,426,426,425,424,423,421,420,419,418,418,417,417,416,415,414,412,411,410,409,408,407,407,406,405,405,404,403,402,401,401,400,399,398,397,396,395,394,393,393,392,392,391,390,389,388,387,387,386,386,385,384,383,382,381,380,379,379,378,378,377,377,376,375,374,374,373,372,372,371,370,369,368,367,366,366,365,364,364,363,362,361,361,360,359,359,358,358,357,356,356,355,354,354,353,352,352,351,351,350,350,349,348,347,347,346,345,345,344,343,342,342,341,341,340,339,339,338,337,337,336,335,335,334,334,333,333,332,332,331,331,330,330,329,329,328,328,327,327,326,325,325,324,324,323,323,322,322,321,320,320,319,319,318,318,317,317,316,315,315,314,314,313,313,312,312,311,311,310,310,309,308,308,307,307,306,306,305,305,305,304,303,303,302,302,301,301,300,300,300,299,299,298,298,297,297,297,296,295,295,294,294,293,293,293,292,292,291,291,290,290,289,289,289,288,288,287,287,287,286,286,285,285,284,284,283,283,283,282,282,281,281,280,280,279,279,279,278,278,277,277,276,276,276,275,275,274,274,274,273,273,272,272,271,271,271,270,270,269,269,269,268,268,267,267,267,266,266,265,265,264,264,264,263,263,263,262,262,261,261,261,260,260,260,259,259,259,258,258,257,257,256,256,256,255,255,255,254,254,253,253,253,252,252,252,251,251,250,250,249,249,249,248,248,248,248,247,247,246,246,246,245,245,245,244,244,244,243,243,242,242,242,242,241,241,241,240,240,239,239,239,238,238,238,237,237,237,236,236,235,235,235,234,234,234,233,233,233,232,232,232,231,231,231,230,230,230,229,229,229,228,228,228,227,227,226,226,226,226,225,225,225,224,224,224,223,223,223,222,222,222,221,221,221,220,220,220,220,219,219,218,218,218,217,217,217,217,217,217,216,216,216,216,216,216,216,216,216,0,0,0,0,0,0,0,0,0,0,0,0,0,0,0,0,0,0,0,0,0,0,0,0,0,0,0,0,0,0,0,0,0,0,0,0,0,0,0,0,0
0,0,0,0,0,0,0,0,0,0,0,0,0,0,0,0,0,0,0,0,0,0,0,0,0,0,0,0,0,0,0,0,0,0,0,0,0,0,0,0,0,0,0,0,0,0,0,0,0,0,0,0,0,0,0,0,0,0,0,0,0,0,0,0,0,0,0,0,0,0,0,0,0,0,0,0,0,0,0,0,0,0,0,0,0,0,0,0,0,0,0,0,0,0,0,0,0,0,0,0,0,0,0,0,0,0,0,0,0,0,0,0,0,0,0,0,0,0,0,0,0,0,0,0,0,0,0,0,0,0,0,0,0,0,0,0,0,0,0,0,0,0,0,0,0,0,0,0,0,0,0,0,0,0,0,0,0,0,0,0,0,0,0,445,444,443,443,442,441,440,439,438,437,436,436,436,435,434,432,430,428,427,426,426,425,424,423,421,420,419,418,418,417,417,416,415,414,413,411,410,409,409,408,407,406,406,405,404,403,402,402,401,400,399,398,397,396,395,394,394,393,392,392,391,390,389,388,388,387,387,386,385,384,383,382,381,380,379,379,378,378,377,377,376,375,375,374,373,372,372,371,370,369,368,368,367,366,365,364,364,363,362,361,361,360,359,359,358,358,357,357,356,355,354,354,353,352,352,351,351,350,350,349,348,347,347,346,346,345,344,343,343,342,341,341,340,340,339,338,337,337,336,336,335,335,334,334,333,333,332,331,331,330,330,329,329,328,328,327,327,326,325,325,324,324,323,323,322,322,321,321,320,319,319,318,318,317,317,316,316,315,314,314,313,313,313,312,311,311,310,310,309,308,308,307,307,306,306,306,305,305,304,304,303,303,302,301,301,301,300,300,299,299,298,298,298,297,297,296,295,295,294,294,294,293,293,292,292,291,291,290,290,290,289,289,288,288,287,287,287,286,286,285,285,284,284,283,283,283,282,282,281,281,280,280,279,279,279,278,278,277,277,276,276,276,275,275,274,274,274,273,273,272,272,271,271,271,270,270,269,269,269,268,268,268,267,267,266,266,265,265,265,264,264,263,263,263,262,262,261,261,261,260,260,260,259,259,259,258,258,257,257,256,256,256,255,255,255,254,254,254,253,253,252,252,252,251,251,250,250,249,249,249,249,248,248,248,247,247,247,246,246,245,245,245,244,244,244,243,243,242,242,242,242,241,241,241,240,240,240,239,239,238,238,238,237,237,237,236,236,235,235,235,234,234,234,233,233,233,232,232,232,231,231,231,230,230,230,229,229,229,228,228,228,227,227,226,226,226,226,225,225,225,224,224,224,223,223,223,222,222,222,221,221,221,220,220,220,220,219,219,218,218,218,217,217,217,217,217,217,216,216,216,216,216,216,216,216,216,0,0,0,0,0,0,0,0,0,0,0,0,0,0,0,0,0,0,0,0,0,0,0,0,0,0,0,0,0,0,0,0,0,0,0,0,0,0,0,0,0
0,0,0,0,0,0,0,0,0,0,0,0,0,0,0,0,0,0,0,0,0,0,0,0,0,0,0,0,0,0,0,0,0,0,0,0,0,0,0,0,0,0,0,0,0,0,0,0,0,0,0,0,0,0,0,0,0,0,0,0,0,0,0,0,0,0,0,0,0,0,0,0,0,0,0,0,0,0,0,0,0,0,0,0,0,0,0,0,0,0,0,0,0,0,0,0,0,0,0,0,0,0,0,0,0,0,0,0,0,0,0,0,0,0,0,0,0,0,0,0,0,0,0,0,0,0,0,0,0,0,0,0,0,0,0,0,0,0,0,0,0,0,0,0,0,0,0,0,0,0,0,0,0,0,0,0,0,0,0,0,0,449,446,445,444,443,443,442,442,441,439,438,437,437,436,436,435,434,432,430,428,427,426,426,425,424,423,421,420,419,419,418,418,417,416,416,414,413,412,411,410,409,408,407,407,406,405,404,403,402,402,401,400,400,399,398,396,395,395,394,393,393,392,391,390,389,388,388,387,387,386,385,384,383,382,381,380,379,379,378,378,377,377,376,375,375,374,373,372,372,371,370,369,369,368,367,366,365,364,364,363,362,362,361,360,360,359,358,358,357,357,356,355,354,354,353,352,352,351,351,350,350,349,348,347,347,346,346,345,344,343,343,342,342,341,340,340,339,338,338,337,336,336,335,335,334,334,333,333,332,332,331,330,330,329,329,328,328,327,327,326,326,325,324,324,323,323,322,322,321,321,320,320,319,318,318,317,317,316,316,315,315,314,314,313,313,312,312,311,311,310,309,309,308,307,307,307,306,306,305,305,304,304,303,303,302,302,301,301,300,300,299,299,298,298,298,297,297,296,296,295,295,294,294,293,293,292,292,291,291,290,290,290,289,289,288,288,288,287,287,286,286,285,285,284,284,284,283,283,282,282,281,281,280,280,280,279,279,278,278,277,277,277,276,276,275,275,275,274,274,273,273,272,272,272,271,271,270,270,269,269,269,268,268,268,267,267,266,266,266,265,265,264,264,263,263,263,262,262,261,261,261,260,260,260,259,259,259,258,258,257,257,257,256,256,255,255,255,254,254,254,253,253,253,252,252,251,251,250,250,250,249,249,249,248,248,248,247,247,247,246,246,245,245,245,245,244,244,243,243,243,242,242,242,241,241,241,240,240,240,239,239,238,238,238,237,237,237,236,236,235,235,235,234,234,234,233,233,233,232,232,232,231,231,231,230,230,230,229,229,229,228,228,228,227,227,226,226,226,226,225,225,225,224,224,224,223,223,223,222,222,222,221,221,220,220,220,220,220,219,219,218,218,218,217,217,217,217,217,217,216,216,216,216,216,216,216,216,0,0,0,0,0,0,0,0,0,0,0,0,0,0,0,0,0,0,0,0,0,0,0,0,0,0,0,0,0,0,0,0,0,0,0,0,0,0,0,0,0,0
0,0,0,0,0,0,0,0,0,0,0,0,0,0,0,0,0,0,0,0,0,0,0,0,0,0,0,0,0,0,0,0,0,0,0,0,0,0,0,0,0,0,0,0,0,0,0,0,0,0,0,0,0,0,0,0,0,0,0,0,0,0,0,0,0,0,0,0,0,0,0,0,0,0,0,0,0,0,0,0,0,0,0,0,0,0,0,0,0,0,0,0,0,0,0,0,0,0,0,0,0,0,0,0,0,0,0,0,0,0,0,0,0,0,0,0,0,0,0,0,0,0,0,0,0,0,0,0,0,0,0,0,0,0,0,0,0,0,0,0,0,0,0,0,0,0,0,0,0,0,0,0,0,0,0,0,0,0,0,0,453,449,446,445,444,443,443,442,442,441,440,439,437,437,436,436,435,434,432,430,429,427,426,426,425,424,423,422,421,420,419,419,418,417,417,416,415,413,412,411,410,409,409,408,407,406,405,404,403,402,402,401,401,400,399,398,397,396,395,394,393,393,392,391,390,389,389,388,387,387,386,385,384,383,382,381,380,380,379,379,378,378,377,376,376,375,374,373,373,372,371,370,370,369,368,367,366,365,365,364,363,363,362,361,360,360,359,359,358,357,357,356,355,354,354,353,352,352,351,351,350,350,349,348,348,347,346,346,345,344,344,343,342,342,341,341,340,339,339,338,337,336,336,335,335,334,334,333,333,332,332,331,331,330,329,329,328,328,327,327,326,326,325,325,324,323,323,323,322,321,321,320,320,319,319,318,317,317,316,316,315,315,314,314,313,313,312,312,311,311,310,310,309,308,308,307,307,306,306,305,305,304,304,303,303,302,302,301,301,300,300,299,299,299,298,298,297,297,296,296,295,295,294,294,293,293,292,292,292,291,291,290,290,289,289,288,288,288,287,287,286,286,285,285,284,284,284,283,283,282,282,281,281,280,280,280,279,279,278,278,277,277,277,276,276,275,275,275,274,274,273,273,273,272,272,271,271,270,270,269,269,269,268,268,268,267,267,267,266,266,265,265,264,264,263,263,263,262,262,262,261,261,260,260,260,259,259,259,258,258,257,257,257,256,256,256,255,255,254,254,254,253,253,253,252,252,251,251,250,250,250,249,249,249,248,248,248,247,247,247,246,246,246,245,245,245,244,244,243,243,243,242,242,242,241,241,241,240,240,240,239,239,238,238,238,237,237,237,236,236,235,235,235,234,234,234,233,233,233,232,232,232,231,231,231,230,230,230,229,229,229,228,228,227,227,227,226,226,226,226,225,225,225,224,224,224,223,223,223,222,222,222,221,221,220,220,220,220,220,219,219,218,218,218,217,217,217,217,217,217,216,216,216,216,216,216,216,216,0,0,0,0,0,0,0,0,0,0,0,0,0,0,0,0,0,0,0,0,0,0,0,0,0,0,0,0,0,0,0,0,0,0,0,0,0,0,0,0,0,0
0,0,0,0,0,0,0,0,0,0,0,0,0,0,0,0,0,0,0,0,0,0,0,0,0,0,0,0,0,0,0,0,0,0,0,0,0,0,0,0,0,0,0,0,0,0,0,0,0,0,0,0,0,0,0,0,0,0,0,0,0,0,0,0,0,0,0,0,0,0,0,0,0,0,0,0,0,0,0,0,0,0,0,0,0,0,0,0,0,0,0,0,0,0,0,0,0,0,0,0,0,0,0,0,0,0,0,0,0,0,0,0,0,0,0,0,0,0,0,0,0,0,0,0,0,0,0,0,0,0,0,0,0,0,0,0,0,0,0,0,0,0,0,0,0,0,0,0,0,0,0,0,0,0,0,0,0,0,0,454,453,449,446,445,444,443,443,442,442,441,440,439,438,437,436,436,435,434,432,430,429,427,426,426,425,424,423,422,421,420,419,419,418,418,417,416,415,414,412,411,410,410,409,408,408,407,406,405,403,403,402,401,401,400,399,398,397,396,395,394,394,393,392,391,391,390,389,388,388,387,386,385,384,383,382,381,380,380,379,379,378,378,377,377,376,375,374,373,373,372,371,371,370,369,368,367,366,365,365,364,363,363,362,361,361,360,359,359,358,357,357,356,355,355,354,353,352,352,351,351,350,350,349,348,348,347,346,346,345,344,344,343,343,342,341,341,340,340,339,338,337,337,336,335,335,334,334,333,333,332,332,331,331,330,330,329,328,328,327,327,326,326,325,325,324,324,323,323,322,322,321,320,320,319,319,318,318,317,317,316,315,315,314,314,313,313,313,312,312,311,310,310,309,308,308,307,307,306,306,305,305,305,304,303,303,302,302,301,301,300,300,300,299,299,298,298,297,297,296,296,295,295,294,294,293,293,292,292,292,291,291,290,290,289,289,289,288,288,287,287,286,286,285,285,284,284,284,283,283,282,282,281,281,280,280,280,279,279,278,278,277,277,277,276,276,275,275,275,274,274,274,273,273,272,272,271,271,270,270,270,269,269,268,268,268,267,267,267,266,266,265,265,264,264,264,263,263,262,262,262,261,261,260,260,260,259,259,259,258,258,258,257,257,256,256,256,255,255,254,254,254,253,253,253,252,252,251,251,250,250,250,249,249,249,248,248,248,247,247,247,246,246,246,245,245,245,244,244,243,243,243,242,242,242,241,241,241,240,240,240,239,239,239,238,238,238,237,237,236,236,235,235,235,234,234,234,233,233,233,232,232,232,231,231,231,230,230,230,229,229,229,228,228,228,227,227,226,226,226,226,225,225,225,224,224,224,223,223,223,222,222,222,221,221,220,220,220,220,220,219,219,219,218,218,217,217,217,217,217,217,217,216,216,216,216,216,216,216,0,0,0,0,0,0,0,0,0,0,0,0,0,0,0,0,0,0,0,0,0,0,0,0,0,0,0,0,0,0,0,0,0,0,0,0,0,0,0,0,0,0
0,0,0,0,0,0,0,0,0,0,0,0,0,0,0,0,0,0,0,0,0,0,0,0,0,0,0,0,0,0,0,0,0,0,0,0,0,0,0,0,0,0,0,0,0,0,0,0,0,0,0,0,0,0,0,0,0,0,0,0,0,0,0,0,0,0,0,0,0,0,0,0,0,0,0,0,0,0,0,0,0,0,0,0,0,0,0,0,0,0,0,0,0,0,0,0,0,0,0,0,0,0,0,0,0,0,0,0,0,0,0,0,0,0,0,0,0,0,0,0,0,0,0,0,0,0,0,0,0,0,0,0,0,0,0,0,0,0,0,0,0,0,0,0,0,0,0,0,0,0,0,0,0,0,0,0,0,0,0,454,454,450,446,445,444,444,443,442,442,441,440,439,438,437,437,436,435,434,432,430,429,428,426,426,425,424,423,422,421,420,420,419,419,418,417,416,415,414,412,411,410,410,409,409,408,407,406,405,404,403,402,402,401,401,400,399,398,396,396,395,394,393,393,392,391,390,389,388,388,387,386,386,385,384,383,382,381,380,379,379,378,378,377,377,376,375,374,373,373,372,371,371,370,369,368,367,367,366,365,364,364,363,362,361,361,360,359,359,358,358,357,356,356,355,354,353,353,352,351,351,350,350,349,348,348,347,347,346,345,345,344,343,343,342,342,341,340,340,339,338,337,337,336,336,335,335,334,334,333,332,332,331,331,330,330,329,329,328,328,327,326,326,325,325,324,324,323,323,322,322,321,320,320,319,319,318,318,317,317,316,316,315,314,314,314,313,313,312,312,311,311,310,309,309,308,308,307,307,306,306,305,305,304,304,303,302,302,301,301,301,300,300,299,299,298,298,297,297,296,296,295,295,294,294,293,293,293,292,292,291,291,290,290,290,289,289,288,288,287,287,286,286,285,285,284,284,284,283,283,282,282,281,281,280,280,280,279,279,278,278,278,277,277,276,276,276,275,275,274,274,274,273,273,272,272,271,271,270,270,270,269,269,268,268,268,267,267,267,266,266,265,265,264,264,264,263,263,263,262,262,261,261,260,260,260,260,259,259,258,258,258,257,257,256,256,256,255,255,255,254,254,253,253,253,252,252,251,251,250,250,250,249,249,249,248,248,248,247,247,247,246,246,246,245,245,245,244,244,244,243,243,242,242,242,241,241,241,240,240,240,239,239,239,238,238,238,237,237,236,236,235,235,235,234,234,234,233,233,233,232,232,232,232,231,231,231,230,230,229,229,229,228,228,228,227,227,227,226,226,226,225,225,225,224,224,224,223,223,223,222,222,222,221,221,220,220,220,220,220,219,219,219,218,218,218,217,217,217,217,217,217,216,216,216,216,216,216,216,0,0,0,0,0,0,0,0,0,0,0,0,0,0,0,0,0,0,0,0,0,0,0,0,0,0,0,0,0,0,0,0,0,0,0,0,0,0,0,0,0,0
0,0,0,0,0,0,0,0,0,0,0,0,0,0,0,0,0,0,0,0,0,0,0,0,0,0,0,0,0,0,0,0,0,0,0,0,0,0,0,0,0,0,0,0,0,0,0,0,0,0,0,0,0,0,0,0,0,0,0,0,0,0,0,0,0,0,0,0,0,0,0,0,0,0,0,0,0,0,0,0,0,0,0,0,0,0,0,0,0,0,0,0,0,0,0,0,0,0,0,0,0,0,0,0,0,0,0,0,0,0,0,0,0,0,0,0,0,0,0,0,0,0,0,0,0,0,0,0,0,0,0,0,0,0,0,0,0,0,0,0,0,0,0,0,0,0,0,0,0,0,0,0,0,0,0,0,0,0,0,454,454,450,446,445,444,444,443,443,442,441,440,439,438,437,437,436,435,434,432,430,429,428,426,426,425,424,423,422,421,421,420,419,419,418,418,417,415,414,413,412,411,410,409,409,408,407,406,405,404,403,402,402,401,401,400,399,398,397,396,395,394,394,393,392,391,390,389,389,388,387,387,386,385,384,383,382,381,380,380,379,379,378,378,377,376,375,374,374,373,372,372,371,370,369,368,368,367,366,365,365,364,363,362,361,361,360,360,359,358,358,357,357,356,355,354,353,353,352,352,351,350,350,349,349,348,347,347,346,345,345,344,344,343,342,342,341,341,340,339,338,338,337,336,336,335,335,334,334,333,333,332,331,331,330,330,329,329,328,328,327,327,326,326,325,324,324,323,323,322,322,321,320,320,319,319,318,318,317,317,316,316,315,315,314,314,313,313,312,312,311,311,310,309,309,308,308,307,307,306,306,305,305,304,304,303,303,302,302,301,301,300,300,299,299,298,298,298,297,296,296,295,295,294,294,293,293,293,292,292,291,291,291,290,290,289,289,288,288,287,287,287,286,286,285,285,284,284,283,283,282,282,281,281,280,280,280,279,279,278,278,278,277,277,276,276,276,275,275,275,274,274,273,273,272,272,271,271,271,270,270,269,269,269,268,268,268,267,267,266,266,265,265,264,264,264,263,263,263,262,262,261,261,261,260,260,260,259,259,258,258,258,257,257,257,256,256,255,255,255,254,254,253,253,253,252,252,251,251,250,250,250,249,249,249,248,248,248,248,247,247,246,246,246,246,245,245,245,244,244,243,243,242,242,242,241,241,241,240,240,240,239,239,239,238,238,238,237,237,236,236,236,235,235,234,234,234,233,233,233,232,232,232,232,231,231,231,230,230,229,229,229,228,228,228,227,227,227,226,226,226,225,225,225,224,224,224,224,223,223,222,222,222,221,221,221,220,220,220,220,219,219,219,218,218,218,217,217,217,217,217,217,216,216,216,216,216,216,216,0,0,0,0,0,0,0,0,0,0,0,0,0,0,0,0,0,0,0,0,0,0,0,0,0,0,0,0,0,0,0,0,0,0,0,0,0,0,0,0,0,0
0,0,0,0,0,0,0,0,0,0,0,0,0,0,0,0,0,0,0,0,0,0,0,0,0,0,0,0,0,0,0,0,0,0,0,0,0,0,0,0,0,0,0,0,0,0,0,0,0,0,0,0,0,0,0,0,0,0,0,0,0,0,0,0,0,0,0,0,0,0,0,0,0,0,0,0,0,0,0,0,0,0,0,0,0,0,0,0,0,0,0,0,0,0,0,0,0,0,0,0,0,0,0,0,0,0,0,0,0,0,0,0,0,0,0,0,0,0,0,0,0,0,0,0,0,0,0,0,0,0,0,0,0,0,0,0,0,0,0,0,0,0,0,0,0,0,0,0,0,0,0,0,0,0,0,0,0,0,0,454,454,450,446,445,444,444,443,443,442,441,440,439,438,438,437,436,435,434,432,430,429,428,426,426,425,424,424,423,422,421,420,419,419,418,418,417,416,414,413,412,411,410,409,409,408,408,407,405,404,403,402,402,401,401,400,399,398,397,396,395,395,394,393,392,391,390,390,389,388,388,387,386,385,384,383,382,381,381,380,379,379,378,378,377,376,375,375,374,373,373,372,371,370,369,369,368,367,366,366,365,364,363,362,361,361,360,360,359,359,358,357,357,356,355,354,354,353,352,352,351,351,350,349,349,348,347,347,346,346,345,344,344,343,342,342,341,341,340,339,339,338,337,337,336,336,335,335,334,333,333,332,332,331,330,330,329,329,328,328,327,327,326,326,325,324,324,323,323,322,322,321,321,320,319,319,318,318,317,317,316,316,315,315,314,314,313,313,312,312,311,311,310,309,309,308,308,307,307,306,306,305,305,304,304,303,303,302,302,301,301,300,300,299,299,299,298,298,297,297,296,295,295,294,294,294,293,293,292,292,292,291,291,290,290,289,289,288,288,288,287,287,286,286,285,285,284,284,283,283,282,282,281,281,281,280,280,279,279,278,278,278,277,277,277,276,276,275,275,275,274,274,273,273,272,272,271,271,271,270,270,269,269,269,268,268,268,267,267,266,266,266,265,265,264,264,263,263,263,262,262,261,261,261,260,260,260,259,259,258,258,258,257,257,257,256,256,255,255,255,254,254,254,253,253,252,252,251,251,251,250,250,249,249,249,248,248,248,248,247,247,247,246,246,246,245,245,245,244,244,243,243,242,242,242,241,241,241,240,240,240,239,239,239,238,238,238,237,237,237,236,236,235,235,235,234,234,233,233,233,232,232,232,232,231,231,231,230,230,229,229,229,228,228,228,227,227,227,226,226,226,225,225,225,225,224,224,224,223,223,223,222,222,221,221,220,220,220,220,220,219,219,219,218,218,218,217,217,217,217,217,217,217,216,216,216,216,216,216,0,0,0,0,0,0,0,0,0,0,0,0,0,0,0,0,0,0,0,0,0,0,0,0,0,0,0,0,0,0,0,0,0,0,0,0,0,0,0,0,0,0
0,0,0,0,0,0,0,0,0,0,0,0,0,0,0,0,0,0,0,0,0,0,0,0,0,0,0,0,0,0,0,0,0,0,0,0,0,0,0,0,0,0,0,0,0,0,0,0,0,0,0,0,0,0,0,0,0,0,0,0,0,0,0,0,0,0,0,0,0,0,0,0,0,0,0,0,0,0,0,0,0,0,0,0,0,0,0,0,0,0,0,0,0,0,0,0,0,0,0,0,0,0,0,0,0,0,0,0,0,0,0,0,0,0,0,0,0,0,0,0,0,0,0,0,0,0,0,0,0,0,0,0,0,0,0,0,0,0,0,0,0,0,0,0,0,0,0,0,0,0,0,0,0,0,0,0,0,0,0,0,454,450,446,445,444,444,444,443,442,441,440,439,438,438,437,436,435,434,432,430,429,427,426,426,425,424,424,423,422,421,420,420,419,419,418,417,416,415,413,412,411,410,410,409,409,408,407,406,404,403,403,402,402,401,400,399,398,397,396,396,395,394,393,392,391,390,390,389,389,388,387,387,386,385,383,382,382,381,380,380,379,379,378,377,376,376,375,374,373,373,372,371,370,369,369,368,367,366,366,365,364,363,362,361,361,360,360,359,359,358,358,357,356,355,355,354,353,353,352,351,351,350,349,349,348,348,347,346,346,345,345,344,343,343,342,341,341,340,340,339,338,338,337,336,336,335,335,334,334,333,332,332,331,330,330,329,329,328,328,328,327,326,326,325,325,324,323,323,322,322,321,321,320,319,319,318,318,317,317,316,316,315,315,314,314,313,313,312,312,311,311,310,310,309,308,308,307,307,306,306,306,305,305,304,303,303,302,302,301,301,301,300,300,299,299,298,298,297,297,296,296,295,295,294,294,293,293,292,292,292,291,291,290,290,289,289,289,288,288,287,287,286,286,285,285,284,284,283,283,282,282,281,281,281,280,280,279,279,279,278,278,277,277,277,276,276,276,275,275,274,274,273,273,272,272,272,271,271,270,270,270,269,269,268,268,268,267,267,267,266,266,265,265,264,264,264,263,263,262,262,261,261,261,260,260,260,259,259,259,258,258,257,257,257,256,256,255,255,255,254,254,254,253,253,252,252,252,251,251,250,250,250,249,249,249,248,248,248,247,247,247,246,246,246,245,245,245,244,244,243,243,243,242,242,242,241,241,240,240,240,239,239,239,238,238,238,237,237,237,236,236,235,235,235,234,234,233,233,233,233,232,232,232,231,231,231,230,230,230,229,229,229,228,228,227,227,227,227,226,226,226,225,225,225,224,224,224,223,223,223,222,222,221,221,220,220,220,220,220,219,219,219,218,218,218,217,217,217,217,217,217,217,216,216,216,216,216,216,0,0,0,0,0,0,0,0,0,0,0,0,0,0,0,0,0,0,0,0,0,0,0,0,0,0,0,0,0,0,0,0,0,0,0,0,0,0,0,0,0,0
0,0,0,0,0,0,0,0,0,0,0,0,0,0,0,0,0,0,0,0,0,0,0,0,0,0,0,0,0,0,0,0,0,0,0,0,0,0,0,0,0,0,0,0,0,0,0,0,0,0,0,0,0,0,0,0,0,0,0,0,0,0,0,0,0,0,0,0,0,0,0,0,0,0,0,0,0,0,0,0,0,0,0,0,0,0,0,0,0,0,0,0,0,0,0,0,0,0,0,0,0,0,0,0,0,0,0,0,0,0,0,0,0,0,0,0,0,0,0,0,0,0,0,0,0,0,0,0,0,0,0,0,0,0,0,0,0,0,0,0,0,0,0,0,0,0,0,0,0,0,0,0,0,0,0,0,0,0,0,0,0,449,446,445,445,444,444,443,442,441,440,439,439,438,437,436,436,434,433,431,429,428,427,426,425,425,424,423,422,421,421,420,419,419,418,417,416,415,413,412,411,410,410,409,409,408,407,406,405,404,403,402,402,401,400,400,399,398,397,396,395,394,393,392,391,391,390,389,389,388,388,387,386,385,384,383,382,381,380,380,379,379,378,377,377,376,375,374,374,373,372,371,371,370,369,368,367,366,366,365,364,363,362,362,361,361,360,359,359,358,358,357,356,356,355,354,353,353,352,352,351,350,350,349,348,348,347,346,346,345,345,344,343,343,342,342,341,340,340,339,339,338,337,337,336,336,335,334,334,333,332,332,331,331,330,330,329,329,328,328,327,327,326,326,325,324,324,323,323,322,321,321,320,319,319,318,318,317,317,316,316,315,315,314,314,314,313,313,312,312,311,310,310,309,308,308,308,307,307,306,306,305,305,304,304,303,303,302,302,301,301,300,300,299,299,298,298,297,297,296,296,295,295,294,294,293,293,293,292,292,291,291,290,290,289,289,289,288,288,287,287,286,286,285,285,285,284,284,283,282,282,282,281,281,280,280,279,279,279,278,278,277,277,277,276,276,276,275,275,274,274,274,273,273,272,272,271,271,270,270,270,269,269,269,268,268,267,267,267,266,266,265,265,264,264,264,263,263,262,262,262,261,261,260,260,260,259,259,259,258,258,257,257,257,256,256,256,255,255,254,254,254,253,253,252,252,252,251,251,250,250,250,249,249,249,248,248,248,247,247,247,246,246,246,245,245,245,244,244,244,243,243,242,242,241,241,241,240,240,240,239,239,239,238,238,238,237,237,237,236,236,236,235,235,234,234,233,233,233,233,232,232,232,231,231,231,230,230,230,229,229,229,228,228,228,227,227,227,226,226,226,225,225,225,224,224,224,223,223,223,222,222,221,221,221,220,220,220,220,219,219,219,218,218,218,217,217,217,217,217,217,217,217,216,216,216,216,216,216,0,0,0,0,0,0,0,0,0,0,0,0,0,0,0,0,0,0,0,0,0,0,0,0,0,0,0,0,0,0,0,0,0,0,0,0,0,0,0,0,0
0,0,0,0,0,0,0,0,0,0,0,0,0,0,0,0,0,0,0,0,0,0,0,0,0,0,0,0,0,0,0,0,0,0,0,0,0,0,0,0,0,0,0,0,0,0,0,0,0,0,0,0,0,0,0,0,0,0,0,0,0,0,0,0,0,0,0,0,0,0,0,0,0,0,0,0,0,0,0,0,0,0,0,0,0,0,0,0,0,0,0,0,0,0,0,0,0,0,0,0,0,0,0,0,0,0,0,0,0,0,0,0,0,0,0,0,0,0,0,0,0,0,0,0,0,0,0,0,0,0,0,0,0,0,0,0,0,0,0,0,0,0,0,0,0,0,0,0,0,0,0,0,0,0,0,0,0,0,0,0,0,0,0,445,445,444,444,443,442,441,440,440,439,438,437,437,436,435,433,431,429,428,427,426,426,425,424,424,423,422,421,420,419,419,418,418,417,415,414,412,411,411,410,410,409,408,407,406,405,404,403,403,402,401,401,400,399,398,397,396,395,394,394,393,392,391,390,390,389,389,388,387,386,385,384,383,382,381,380,380,380,379,378,378,377,376,375,375,374,373,372,372,371,370,369,368,367,366,366,365,364,363,363,362,361,361,360,360,359,358,358,357,356,356,355,354,354,353,352,352,351,350,350,349,348,348,347,347,346,345,345,344,343,343,342,342,341,341,340,339,339,338,337,337,336,336,335,335,334,333,333,332,331,331,330,330,329,329,328,328,327,327,326,326,325,325,324,323,323,322,321,321,320,319,319,318,318,318,317,317,316,315,315,314,314,314,313,313,312,312,311,310,310,309,309,308,308,307,307,306,306,305,305,304,304,303,303,302,302,301,301,300,300,299,299,298,298,297,297,296,296,295,295,294,294,293,293,293,292,292,291,291,290,290,289,289,289,288,288,287,287,286,286,286,285,285,284,284,283,283,282,282,281,281,280,280,280,279,279,278,278,277,277,277,276,276,276,275,275,274,274,274,273,273,272,272,271,271,270,270,270,269,269,269,268,268,267,267,267,266,266,265,265,264,264,264,263,263,262,262,262,261,261,261,260,260,260,259,259,258,258,258,257,257,256,256,256,255,255,254,254,254,253,253,253,252,252,251,251,250,250,250,249,249,249,248,248,248,247,247,247,246,246,246,245,245,245,244,244,244,243,243,242,242,242,241,241,240,240,240,239,239,239,239,238,238,238,237,237,236,236,236,235,235,234,234,234,233,233,233,232,232,232,231,231,231,230,230,230,229,229,229,228,228,228,227,227,227,226,226,226,225,225,225,225,224,224,223,223,223,222,222,221,221,221,220,220,220,220,219,219,219,218,218,218,217,217,217,217,217,217,217,217,217,216,216,216,216,216,0,0,0,0,0,0,0,0,0,0,0,0,0,0,0,0,0,0,0,0,0,0,0,0,0,0,0,0,0,0,0,0,0,0,0,0,0,0,0,0,0
0,0,0,0,0,0,0,0,0,0,0,0,0,0,0,0,0,0,0,0,0,0,0,0,0,0,0,0,0,0,0,0,0,0,0,0,0,0,0,0,0,0,0,0,0,0,0,0,0,0,0,0,0,0,0,0,0,0,0,0,0,0,0,0,0,0,0,0,0,0,0,0,0,0,0,0,0,0,0,0,0,0,0,0,0,0,0,0,0,0,0,0,0,0,0,0,0,0,0,0,0,0,0,0,0,0,0,0,0,0,0,0,0,0,0,0,0,0,0,0,0,0,0,0,0,0,0,0,0,0,0,0,0,0,0,0,0,0,0,0,0,0,0,0,0,0,0,0,0,0,0,0,0,0,0,0,0,0,0,0,0,0,0,0,445,0,0,0,0,0,0,440,439,439,438,437,436,435,433,431,429,428,427,427,426,425,425,424,423,422,421,420,420,419,419,418,417,415,414,412,411,411,410,410,409,409,408,407,405,404,404,403,402,401,401,400,399,398,397,396,395,394,394,393,392,391,390,390,389,389,388,387,386,385,384,383,382,381,381,380,380,379,378,378,377,376,375,375,374,373,372,372,371,370,369,368,367,366,366,365,364,364,363,362,362,361,360,360,359,359,358,357,357,356,355,354,354,353,353,352,351,351,350,349,349,348,347,347,346,345,345,344,343,343,342,342,341,341,340,339,339,338,338,337,336,336,335,335,334,333,333,332,331,331,330,330,329,329,328,328,328,327,327,326,325,325,324,324,323,322,322,321,320,319,319,319,318,318,317,317,316,315,315,315,314,314,313,313,312,312,311,310,310,309,309,308,308,307,307,306,306,305,305,304,304,303,303,302,302,301,301,300,300,299,299,298,298,297,297,296,296,295,295,294,294,294,293,293,292,292,291,291,290,290,289,289,289,288,288,287,287,287,286,286,285,285,284,284,283,283,282,282,281,281,280,280,280,279,279,278,278,278,277,277,276,276,276,275,275,275,274,274,273,273,272,272,271,271,271,270,270,269,269,269,268,268,268,267,267,266,266,265,265,265,264,264,263,263,262,262,262,261,261,261,260,260,260,259,259,258,258,258,257,257,256,256,256,255,255,254,254,254,253,253,253,252,252,251,251,250,250,250,249,249,249,248,248,248,247,247,247,246,246,246,245,245,245,244,244,243,243,243,242,242,242,241,241,240,240,240,239,239,239,239,238,238,238,237,237,236,236,236,235,235,234,234,234,233,233,233,232,232,232,231,231,231,230,230,230,230,229,229,229,228,228,228,227,227,226,226,226,225,225,225,225,224,224,223,223,223,222,222,221,221,221,221,220,220,220,220,219,219,219,218,218,217,217,217,217,217,217,217,217,217,217,216,216,216,216,0,0,0,0,0,0,0,0,0,0,0,0,0,0,0,0,0,0,0,0,0,0,0,0,0,0,0,0,0,0,0,0,0,0,0,0,0,0,0,0,0
0,0,0,0,0,0,0,0,0,0,0,0,0,0,0,0,0,0,0,0,0,0,0,0,0,0,0,0,0,0,0,0,0,0,0,0,0,0,0,0,0,0,0,0,0,0,0,0,0,0,0,0,0,0,0,0,0,0,0,0,0,0,0,0,0,0,0,0,0,0,0,0,0,0,0,0,0,0,0,0,0,0,0,0,0,0,0,0,0,0,0,0,0,0,0,0,0,0,0,0,0,0,0,0,0,0,0,0,0,0,0,0,0,0,0,0,0,0,0,0,0,0,0,0,0,0,0,0,0,0,0,0,0,0,0,0,0,0,0,0,0,0,0,0,0,0,0,0,0,0,0,0,0,0,0,0,0,0,0,0,0,0,0,0,0,445,0,0,0,0,0,440,440,439,438,437,436,435,433,431,430,429,428,427,427,426,425,424,423,422,421,421,420,419,419,418,417,416,414,413,412,411,410,410,410,409,408,407,406,405,404,403,402,402,401,400,399,398,397,396,395,395,394,393,392,391,390,390,389,389,388,387,386,385,384,383,382,381,381,380,380,379,379,378,377,376,376,375,374,373,372,372,371,370,369,368,367,367,366,365,365,364,363,363,362,361,361,360,360,359,358,357,357,356,355,355,354,354,353,352,352,351,350,349,349,348,348,347,346,346,345,344,343,343,342,342,341,341,340,340,339,338,338,337,337,336,336,335,334,334,333,332,331,331,330,330,329,329,329,328,328,327,327,326,326,325,324,324,323,322,322,321,320,320,319,319,318,318,317,317,316,316,315,315,314,314,313,313,312,312,311,310,310,309,309,308,308,308,307,307,306,305,305,304,304,303,303,302,302,301,301,300,300,299,299,298,298,297,297,296,296,295,295,295,294,294,293,293,292,292,292,291,291,290,290,289,289,288,288,287,287,287,286,286,285,285,284,284,283,283,282,282,281,281,281,280,280,279,279,278,278,278,277,277,277,276,276,275,275,275,274,274,273,273,272,272,271,271,271,270,270,269,269,269,268,268,268,267,267,266,266,265,265,265,264,264,263,263,263,262,262,261,261,261,260,260,260,259,259,258,258,258,257,257,256,256,256,255,255,254,254,254,253,253,253,252,252,251,251,250,250,250,249,249,249,248,248,248,247,247,247,246,246,246,246,245,245,244,244,243,243,243,242,242,242,241,241,241,240,240,240,239,239,239,238,238,238,237,237,236,236,236,235,235,235,234,234,233,233,233,232,232,232,231,231,231,231,230,230,230,229,229,229,228,228,228,227,227,226,226,226,226,225,225,225,224,224,223,223,223,222,222,221,221,221,221,220,220,220,220,219,219,219,218,218,217,217,217,217,217,217,217,217,217,217,216,216,216,0,0,0,0,0,0,0,0,0,0,0,0,0,0,0,0,0,0,0,0,0,0,0,0,0,0,0,0,0,0,0,0,0,0,0,0,0,0,0,0,0,0
0,0,0,0,0,0,0,0,0,0,0,0,0,0,0,0,0,0,0,0,0,0,0,0,0,0,0,0,0,0,0,0,0,0,0,0,0,0,0,0,0,0,0,0,0,0,0,0,0,0,0,0,0,0,0,0,0,0,0,0,0,0,0,0,0,0,0,0,0,0,0,0,0,0,0,0,0,0,0,0,0,0,0,0,0,0,0,0,0,0,0,0,0,0,0,0,0,0,0,0,0,0,0,0,0,0,0,0,0,0,0,0,0,0,0,0,0,0,0,0,0,0,0,0,0,0,0,0,0,0,0,0,0,0,0,0,0,0,0,0,0,0,0,0,0,0,0,0,0,0,0,0,0,0,0,0,0,0,0,0,0,0,0,0,0,446,445,445,445,444,442,440,440,439,438,437,436,435,433,432,430,429,429,428,427,426,426,425,424,423,422,421,420,420,419,418,417,416,414,413,412,411,411,410,410,409,408,408,406,405,404,403,402,402,401,400,399,398,397,396,395,395,394,393,392,391,390,390,389,389,388,387,386,385,384,383,382,381,381,380,380,379,379,378,377,376,376,375,374,373,373,372,371,370,369,368,367,367,366,366,365,364,364,363,362,362,361,360,360,359,358,358,357,356,356,355,354,354,353,352,352,351,350,350,349,348,348,347,347,346,345,344,344,343,342,342,342,341,340,340,339,338,338,337,337,336,336,335,334,334,333,332,332,331,330,330,330,329,329,328,328,327,327,326,326,325,324,324,323,323,322,321,320,320,319,319,318,318,318,317,316,316,315,315,314,314,313,313,312,312,311,311,310,309,309,309,308,308,307,307,306,306,305,304,304,303,303,302,302,301,301,300,300,299,299,298,298,297,297,296,296,295,295,295,294,294,293,293,293,292,292,291,291,290,290,289,289,288,288,287,287,287,286,286,285,285,284,284,284,283,282,282,282,281,281,280,280,279,279,279,278,278,277,277,277,276,276,275,275,275,274,274,273,273,272,272,272,271,271,270,270,269,269,269,268,268,268,267,267,266,266,265,265,265,264,264,263,263,263,262,262,261,261,261,260,260,260,259,259,259,258,258,257,257,257,256,256,255,255,255,254,254,253,253,253,252,252,251,251,250,250,250,249,249,249,248,248,248,247,247,247,246,246,246,246,245,245,244,244,243,243,243,242,242,242,241,241,241,240,240,240,239,239,239,238,238,237,237,237,236,236,236,235,235,235,234,234,234,233,233,233,232,232,232,231,231,231,230,230,230,230,229,229,229,228,228,227,227,226,226,226,226,225,225,225,224,224,223,223,223,222,222,221,221,221,221,220,220,220,220,219,219,219,218,218,217,217,217,217,217,217,217,217,217,217,216,216,216,0,0,0,0,0,0,0,0,0,0,0,0,0,0,0,0,0,0,0,0,0,0,0,0,0,0,0,0,0,0,0,0,0,0,0,0,0,0,0,0,0,0
0,0,0,0,0,0,0,0,0,0,0,0,0,0,0,0,0,0,0,0,0,0,0,0,0,0,0,0,0,0,0,0,0,0,0,0,0,0,0,0,0,0,0,0,0,0,0,0,0,0,0,0,0,0,0,0,0,0,0,0,0,0,0,0,0,0,0,0,0,0,0,0,0,0,0,0,0,0,0,0,0,0,0,0,0,0,0,0,0,0,0,0,0,0,0,0,0,0,0,0,0,0,0,0,0,0,0,0,0,0,0,0,0,0,0,0,0,0,0,0,0,0,0,0,0,0,0,0,0,0,0,0,0,0,0,0,0,0,0,0,0,0,0,0,0,0,0,0,0,0,0,0,0,0,0,0,0,0,0,0,0,0,0,0,447,446,446,445,445,444,442,440,439,439,438,437,436,435,433,432,431,430,429,428,427,427,426,425,424,423,422,421,421,420,419,419,418,417,415,413,412,411,411,410,410,409,409,408,407,405,404,403,402,402,401,400,399,398,397,396,396,395,394,393,392,391,391,390,389,389,388,387,386,385,384,383,382,382,381,380,380,379,379,378,377,377,376,375,374,373,373,372,371,370,369,368,368,367,366,366,365,365,364,363,363,362,361,361,360,359,359,358,357,356,356,355,354,354,353,353,352,351,351,350,349,349,348,347,347,346,345,344,344,343,343,342,342,341,341,340,339,339,338,337,337,336,336,335,335,334,333,332,332,331,331,330,330,329,329,329,328,327,327,326,326,325,325,324,323,323,322,321,321,320,319,319,319,318,318,317,317,316,315,315,314,314,313,313,312,312,311,311,310,309,309,309,308,308,307,307,306,306,305,305,304,304,303,303,302,301,301,300,300,299,299,298,298,297,297,296,296,296,295,295,294,294,294,293,293,292,292,291,291,290,290,289,289,288,288,288,287,287,286,286,285,285,285,284,284,283,283,282,282,281,281,280,280,280,279,279,278,278,277,277,277,276,276,276,275,275,274,274,273,273,272,272,272,271,271,270,270,269,269,269,268,268,268,267,267,266,266,265,265,265,264,264,263,263,263,262,262,262,261,261,261,260,260,259,259,259,258,258,258,257,257,256,256,255,255,255,254,254,254,253,253,252,252,251,251,251,250,250,250,249,249,249,248,248,247,247,247,246,246,246,246,245,245,244,244,243,243,243,242,242,242,241,241,241,240,240,240,239,239,239,238,238,237,237,237,236,236,236,235,235,235,234,234,234,233,233,233,232,232,232,231,231,231,230,230,230,230,229,229,229,228,228,227,227,226,226,226,226,225,225,225,224,224,223,223,223,222,222,222,221,221,221,221,220,220,220,220,219,219,218,218,218,217,217,217,217,217,217,217,217,217,216,216,216,0,0,0,0,0,0,0,0,0,0,0,0,0,0,0,0,0,0,0,0,0,0,0,0,0,0,0,0,0,0,0,0,0,0,0,0,0,0,0,0,0,0
0,0,0,0,0,0,0,0,0,0,0,0,0,0,0,0,0,0,0,0,0,0,0,0,0,0,0,0,0,0,0,0,0,0,0,0,0,0,0,0,0,0,0,0,0,0,0,0,0,0,0,0,0,0,0,0,0,0,0,0,0,0,0,0,0,0,0,0,0,0,0,0,0,0,0,0,0,0,0,0,0,0,0,0,0,0,0,0,0,0,0,0,0,0,0,0,0,0,0,0,0,0,0,0,0,0,0,0,0,0,0,0,0,0,0,0,0,0,0,0,0,0,0,0,0,0,0,0,0,0,0,0,0,0,0,0,0,0,0,0,0,0,0,0,0,0,0,0,0,0,0,0,0,0,0,0,0,0,0,0,0,0,454,451,448,447,446,445,445,444,442,440,439,438,438,437,436,435,433,432,431,430,429,429,428,427,426,425,424,423,422,421,421,420,420,419,418,417,416,414,413,412,411,411,410,410,409,408,407,406,404,403,402,402,401,400,399,398,397,397,396,395,394,393,392,391,391,390,390,389,388,387,386,385,384,383,382,382,381,380,380,379,379,378,377,377,376,375,374,374,373,372,371,370,369,368,368,367,366,366,365,365,364,363,363,362,361,361,360,359,359,358,357,357,356,355,355,354,353,353,352,352,351,350,350,349,348,348,347,346,345,345,344,343,343,342,342,341,341,340,339,339,338,338,337,336,336,335,335,334,333,333,332,331,331,330,330,330,329,329,328,328,327,326,326,325,325,324,324,323,322,321,321,320,320,319,319,318,318,317,317,316,315,315,314,314,313,313,312,312,311,311,310,310,309,309,308,308,307,307,306,306,305,305,304,304,303,303,302,301,301,300,300,299,299,299,298,298,297,297,296,296,295,295,294,294,294,293,293,292,292,291,291,290,290,289,289,289,288,288,287,287,286,286,285,285,285,284,284,283,283,282,282,281,281,280,280,280,279,279,278,278,277,277,277,276,276,276,275,275,274,274,273,273,273,272,272,271,271,270,270,269,269,269,268,268,268,267,267,266,266,265,265,265,264,264,263,263,263,262,262,262,261,261,261,260,260,260,259,259,258,258,258,257,257,256,256,255,255,255,254,254,254,253,253,252,252,252,251,251,250,250,250,249,249,249,248,248,247,247,247,247,246,246,246,245,245,244,244,243,243,242,242,242,242,241,241,241,240,240,240,239,239,239,238,238,237,237,237,236,236,236,235,235,235,234,234,234,233,233,233,232,232,232,231,231,231,231,230,230,230,229,229,229,228,228,227,227,226,226,226,226,225,225,225,224,224,223,223,223,222,222,222,221,221,221,221,220,220,220,220,219,219,218,218,218,217,217,217,217,217,217,217,217,217,216,216,216,0,0,0,0,0,0,0,0,0,0,0,0,0,0,0,0,0,0,0,0,0,0,0,0,0,0,0,0,0,0,0,0,0,0,0,0,0,0,0,0,0,0
0,0,0,0,0,0,0,0,0,0,0,0,0,0,0,0,0,0,0,0,0,0,0,0,0,0,0,0,0,0,0,0,0,0,0,0,0,0,0,0,0,0,0,0,0,0,0,0,0,0,0,0,0,0,0,0,0,0,0,0,0,0,0,0,0,0,0,0,0,0,0,0,0,0,0,0,0,0,0,0,0,0,0,0,0,0,0,0,0,0,0,0,0,0,0,0,0,0,0,0,0,0,0,0,0,0,0,0,0,0,0,0,0,0,0,0,0,0,0,0,0,0,0,0,0,0,0,0,0,0,0,0,0,0,0,0,0,0,0,0,0,0,0,0,0,0,0,0,0,0,0,0,0,0,0,0,0,0,0,0,0,456,454,451,448,447,446,445,445,444,442,441,440,439,438,437,436,435,434,432,431,430,429,429,428,428,427,425,424,423,422,422,421,421,420,420,419,418,416,414,413,412,411,411,410,410,409,408,407,406,404,403,402,402,401,400,399,399,398,397,396,395,394,393,392,392,391,390,390,389,388,387,386,385,384,383,382,382,381,381,380,380,379,378,377,377,376,375,374,374,373,372,371,370,369,369,368,367,366,366,365,365,364,363,363,362,361,361,360,360,359,358,358,357,356,355,355,354,354,353,352,352,351,350,350,349,349,348,347,346,346,345,344,344,343,342,342,341,341,340,340,339,338,338,337,337,336,336,335,334,334,333,332,332,331,331,330,330,329,329,328,328,327,327,326,326,325,324,324,323,322,321,321,320,320,319,319,318,318,317,317,316,315,315,314,314,313,313,313,312,311,311,310,310,309,309,308,308,307,307,306,306,305,305,304,304,303,303,302,302,301,301,300,300,299,299,298,298,297,297,296,296,295,295,295,294,294,293,293,292,292,291,291,290,290,289,289,289,288,288,287,287,286,286,286,285,285,284,284,283,283,282,282,281,281,281,280,280,279,279,278,278,278,277,277,276,276,276,275,275,274,274,273,273,273,272,272,271,271,270,270,270,269,269,268,268,268,267,267,266,266,266,265,265,264,264,264,263,263,262,262,262,261,261,261,260,260,260,259,259,259,258,258,257,257,256,256,256,255,255,254,254,254,253,253,252,252,252,251,251,250,250,250,249,249,249,248,248,247,247,247,247,246,246,246,245,245,244,244,243,243,242,242,242,242,241,241,241,240,240,240,239,239,239,238,238,238,237,237,236,236,236,235,235,235,234,234,234,233,233,233,232,232,232,231,231,231,231,230,230,230,229,229,229,228,228,227,227,226,226,226,226,225,225,224,224,224,223,223,223,222,222,222,221,221,221,221,220,220,220,220,219,219,218,218,218,217,217,217,217,217,217,217,217,217,217,216,216,0,0,0,0,0,0,0,0,0,0,0,0,0,0,0,0,0,0,0,0,0,0,0,0,0,0,0,0,0,0,0,0,0,0,0,0,0,0,0,0,0,0
0,0,0,0,0,0,0,0,0,0,0,0,0,0,0,0,0,0,0,0,0,0,0,0,0,0,0,0,0,0,0,0,0,0,0,0,0,0,0,0,0,0,0,0,0,0,0,0,0,0,0,0,0,0,0,0,0,0,0,0,0,0,0,0,0,0,0,0,0,0,0,0,0,0,0,0,0,0,0,0,0,0,0,0,0,0,0,0,0,0,0,0,0,0,0,0,0,0,0,0,0,0,0,0,0,0,0,0,0,0,0,0,0,0,0,0,0,0,0,0,0,0,0,0,0,0,0,0,0,0,0,0,0,0,0,0,0,0,0,0,0,0,0,0,0,0,0,0,0,0,0,0,0,0,0,0,0,0,456,456,456,455,454,452,449,447,447,446,445,444,442,441,440,439,438,437,436,435,434,432,431,430,430,429,429,428,427,426,424,424,423,422,422,421,421,420,419,418,416,415,413,412,412,411,411,410,410,409,407,406,404,403,403,402,401,400,400,399,398,397,396,395,394,393,392,392,391,390,390,389,388,387,386,385,384,384,383,382,381,381,380,380,379,378,378,377,376,375,375,374,373,372,372,371,370,369,368,367,367,366,365,365,364,363,363,362,361,361,360,360,359,358,358,357,356,356,355,354,354,353,353,352,351,351,350,349,349,348,347,347,346,345,344,344,343,343,342,341,341,340,340,339,338,338,337,337,336,336,335,334,334,333,332,332,331,331,330,330,329,329,328,328,327,327,326,326,325,324,324,323,322,322,321,320,320,319,319,318,318,317,317,316,315,315,314,314,314,313,313,312,311,311,310,310,309,309,308,308,308,307,307,306,305,305,305,304,304,303,302,302,301,301,300,300,299,299,298,298,297,297,296,296,295,295,295,294,294,293,293,292,292,291,291,290,290,289,289,289,288,288,287,287,287,286,286,285,285,284,284,283,283,282,282,281,281,281,280,280,279,279,278,278,278,277,277,276,276,276,275,275,274,274,274,273,273,272,272,272,271,271,270,270,269,269,269,268,268,267,267,266,266,266,265,265,264,264,264,263,263,263,262,262,262,261,261,260,260,260,259,259,259,258,258,257,257,257,256,256,255,255,254,254,254,253,253,253,252,252,251,251,250,250,250,249,249,249,248,248,248,247,247,247,246,246,246,245,245,244,244,243,243,243,242,242,242,241,241,241,240,240,240,239,239,239,238,238,238,237,237,236,236,236,235,235,235,234,234,234,233,233,233,233,232,232,231,231,231,231,230,230,230,229,229,229,228,228,227,227,226,226,226,225,225,225,224,224,224,223,223,223,222,222,222,221,221,221,221,220,220,220,220,219,219,218,218,218,217,217,217,217,217,217,217,217,217,217,216,216,0,0,0,0,0,0,0,0,0,0,0,0,0,0,0,0,0,0,0,0,0,0,0,0,0,0,0,0,0,0,0,0,0,0,0,0,0,0,0,0,0,0
0,0,0,0,0,0,0,0,0,0,0,0,0,0,0,0,0,0,0,0,0,0,0,0,0,0,0,0,0,0,0,0,0,0,0,0,0,0,0,0,0,0,0,0,0,0,0,0,0,0,0,0,0,0,0,0,0,0,0,0,0,0,0,0,0,0,0,0,0,0,0,0,0,0,0,0,0,0,0,0,0,0,0,0,0,0,0,0,0,0,0,0,0,0,0,0,0,0,0,0,0,0,0,0,0,0,0,0,0,0,0,0,0,0,0,0,0,0,0,0,0,0,0,0,0,0,0,0,0,0,0,0,0,0,0,0,0,0,0,0,0,0,0,0,0,0,0,0,0,0,0,0,0,0,0,0,0,456,456,456,455,454,454,452,450,448,448,447,446,445,443,442,440,439,439,438,437,435,434,433,432,431,430,429,429,428,427,426,425,424,423,423,422,422,421,420,419,418,416,415,414,413,412,412,411,411,410,409,408,406,405,404,403,402,401,401,400,399,398,397,397,396,395,394,393,392,391,390,390,389,388,388,387,386,385,384,383,382,382,381,380,380,379,379,378,377,376,375,375,374,373,373,372,371,370,369,368,367,367,366,366,365,364,364,363,362,362,361,360,360,359,359,358,357,356,356,355,355,354,353,353,352,352,351,350,350,349,348,348,347,346,345,344,344,343,343,342,342,341,340,340,339,339,338,337,337,336,336,335,334,334,333,332,332,331,331,331,330,330,329,328,328,327,327,326,326,325,325,324,323,322,322,321,321,320,320,319,319,318,318,317,316,316,315,315,314,314,313,313,312,312,311,310,310,309,309,309,308,308,307,307,306,306,305,305,304,304,303,303,302,301,301,300,300,299,299,299,298,298,297,297,296,296,295,295,294,294,294,293,292,292,292,291,290,290,290,289,289,288,288,287,287,287,286,286,285,285,284,284,283,283,282,282,282,281,281,280,280,280,279,279,278,278,277,277,277,276,276,275,275,274,274,274,273,273,273,272,272,271,271,270,270,269,269,269,268,268,267,267,267,266,266,265,265,265,264,264,263,263,263,262,262,262,261,261,261,260,260,259,259,259,258,258,257,257,257,256,256,255,255,255,254,254,253,253,253,252,252,251,251,251,250,250,250,249,249,248,248,248,247,247,247,246,246,246,245,245,244,244,243,243,243,242,242,242,241,241,241,240,240,240,240,239,239,239,238,238,237,237,236,236,236,235,235,235,234,234,234,233,233,233,233,232,232,231,231,231,231,230,230,230,229,229,229,228,228,227,227,226,226,226,225,225,225,224,224,224,223,223,223,222,222,222,222,221,221,221,221,220,220,220,219,219,218,218,218,217,217,217,217,217,217,217,217,217,217,217,216,0,0,0,0,0,0,0,0,0,0,0,0,0,0,0,0,0,0,0,0,0,0,0,0,0,0,0,0,0,0,0,0,0,0,0,0,0,0,0,0,0,0
0,0,0,0,0,0,0,0,0,0,0,0,0,0,0,0,0,0,0,0,0,0,0,0,0,0,0,0,0,0,0,0,0,0,0,0,0,0,0,0,0,0,0,0,0,0,0,0,0,0,0,0,0,0,0,0,0,0,0,0,0,0,0,0,0,0,0,0,0,0,0,0,0,0,0,0,0,0,0,0,0,0,0,0,0,0,0,0,0,0,0,0,0,0,0,0,0,0,0,0,0,0,0,0,0,0,0,0,0,0,0,0,0,0,0,0,0,0,0,0,0,0,0,0,0,0,0,0,0,0,0,0,0,0,0,0,0,0,0,0,0,0,0,0,0,0,0,0,0,0,0,0,0,0,0,0,0,456,456,456,455,454,454,453,452,0,0,450,448,446,444,443,441,440,439,438,437,436,434,433,432,431,430,429,429,428,427,426,425,424,424,423,422,422,421,421,420,418,417,415,414,413,412,412,411,411,410,409,408,407,405,404,403,402,401,401,400,399,398,398,397,396,395,394,393,392,391,390,390,389,388,388,387,386,385,384,383,383,382,381,381,380,380,379,378,377,376,376,375,374,374,373,372,371,370,369,368,367,367,366,366,365,364,364,363,362,362,361,361,360,359,359,358,357,357,356,355,355,354,354,353,352,352,351,350,350,349,348,348,347,346,345,345,344,343,343,342,342,341,341,340,339,339,338,338,337,336,336,335,334,334,333,332,332,332,331,331,330,330,329,329,328,327,327,326,326,325,325,324,323,322,322,321,321,320,320,319,319,318,318,317,316,316,315,315,314,314,313,313,312,312,311,311,310,310,309,309,308,308,307,307,306,306,305,305,304,304,303,303,302,302,301,301,300,300,299,299,298,298,297,297,296,296,295,295,294,294,294,293,293,292,292,291,291,290,290,289,289,288,288,288,287,287,286,286,285,285,285,284,283,283,282,282,282,281,281,280,280,280,279,279,278,278,278,277,277,276,276,275,275,275,274,274,273,273,273,272,272,271,271,270,270,269,269,269,268,268,267,267,267,266,266,265,265,265,264,264,264,263,263,262,262,262,261,261,261,260,260,259,259,259,258,258,257,257,257,256,256,255,255,255,254,254,254,253,253,252,252,251,251,251,250,250,250,249,249,249,248,248,247,247,247,246,246,246,245,245,244,244,243,243,243,242,242,242,241,241,241,240,240,240,240,239,239,239,238,238,237,237,236,236,236,235,235,235,234,234,234,233,233,233,233,232,232,231,231,231,231,230,230,230,229,229,229,228,228,227,227,226,226,226,225,225,225,224,224,224,223,223,223,222,222,222,222,221,221,221,221,220,220,220,219,219,219,218,218,217,217,217,217,217,217,217,217,217,217,217,216,0,0,0,0,0,0,0,0,0,0,0,0,0,0,0,0,0,0,0,0,0,0,0,0,0,0,0,0,0,0,0,0,0,0,0,0,0,0,0,0,0,0
0,0,0,0,0,0,0,0,0,0,0,0,0,0,0,0,0,0,0,0,0,0,0,0,0,0,0,0,0,0,0,0,0,0,0,0,0,0,0,0,0,0,0,0,0,0,0,0,0,0,0,0,0,0,0,0,0,0,0,0,0,0,0,0,0,0,0,0,0,0,0,0,0,0,0,0,0,0,0,0,0,0,0,0,0,0,0,0,0,0,0,0,0,0,0,0,0,0,0,0,0,0,0,0,0,0,0,0,0,0,0,0,0,0,0,0,0,0,0,0,0,0,0,0,0,0,0,0,0,0,0,0,0,0,0,0,0,0,0,0,0,0,0,0,0,0,0,0,0,0,0,0,0,0,0,0,0,456,456,456,455,454,454,453,0,452,0,453,450,448,446,444,442,440,439,438,437,436,434,433,432,431,430,430,429,428,427,426,425,424,424,423,423,422,421,421,420,418,417,416,414,413,413,412,412,411,410,409,408,407,405,404,403,402,402,401,400,399,398,398,397,396,395,394,393,392,391,391,390,389,389,388,387,386,386,385,384,383,382,382,381,381,380,379,379,378,377,376,375,375,374,373,372,371,370,369,368,368,367,366,366,365,365,364,363,363,362,361,361,360,360,359,358,357,357,356,355,355,354,354,353,353,352,351,351,350,349,349,348,347,346,345,345,344,343,343,342,342,341,341,340,340,339,338,338,337,337,336,335,334,334,333,333,332,332,331,331,330,330,329,329,328,328,327,327,326,326,325,324,323,323,322,321,321,320,320,319,319,318,318,317,316,316,315,315,314,314,313,313,312,312,311,311,310,310,309,309,308,308,307,307,306,306,305,305,304,304,304,303,302,302,301,301,300,300,299,299,298,298,297,297,296,296,295,295,295,294,294,293,293,292,292,291,291,290,290,289,289,288,288,288,287,287,286,286,285,285,285,284,284,283,283,282,282,281,281,281,280,280,279,279,278,278,278,277,277,276,276,276,275,275,274,274,273,273,273,272,272,271,271,270,270,269,269,269,268,268,268,267,267,266,266,265,265,265,264,264,264,263,263,263,262,262,261,261,261,260,260,259,259,259,258,258,257,257,257,256,256,255,255,255,254,254,254,253,253,252,252,251,251,251,250,250,250,249,249,249,248,248,247,247,247,246,246,246,245,245,244,244,243,243,243,242,242,242,242,241,241,241,240,240,240,239,239,239,238,238,237,237,236,236,236,235,235,235,234,234,234,234,233,233,233,232,232,231,231,231,231,230,230,230,229,229,229,228,228,227,227,226,226,226,225,225,225,225,224,224,223,223,223,223,222,222,222,221,221,221,221,220,220,220,219,219,219,218,218,217,217,217,217,217,217,217,217,217,217,217,216,0,0,0,0,0,0,0,0,0,0,0,0,0,0,0,0,0,0,0,0,0,0,0,0,0,0,0,0,0,0,0,0,0,0,0,0,0,0,0,0,0,0
0,0,0,0,0,0,0,0,0,0,0,0,0,0,0,0,0,0,0,0,0,0,0,0,0,0,0,0,0,0,0,0,0,0,0,0,0,0,0,0,0,0,0,0,0,0,0,0,0,0,0,0,0,0,0,0,0,0,0,0,0,0,0,0,0,0,0,0,0,0,0,0,0,0,0,0,0,0,0,0,0,0,0,0,0,0,0,0,0,0,0,0,0,0,0,0,0,0,0,0,0,0,0,0,0,0,0,0,0,0,0,0,0,0,0,0,0,0,0,0,0,0,0,0,0,0,0,0,0,0,0,0,0,0,0,0,0,0,0,0,0,0,0,0,0,0,0,0,0,0,0,0,0,0,0,0,0,0,456,456,455,454,454,454,453,453,453,453,452,450,448,446,443,441,440,439,438,436,435,433,432,431,431,430,429,428,427,426,425,425,424,423,423,422,422,421,420,419,417,416,415,414,413,412,412,411,410,409,408,407,405,404,403,403,402,401,400,399,399,398,397,396,395,394,393,392,391,391,390,389,389,388,387,387,386,385,384,383,383,382,381,381,380,380,379,378,377,376,375,375,374,373,372,371,370,369,369,368,367,367,366,365,365,364,363,363,362,362,361,360,360,359,358,358,357,356,355,355,354,354,353,353,352,351,351,350,349,349,348,347,346,345,345,344,344,343,342,342,341,341,340,340,339,338,338,337,337,336,335,334,334,333,333,332,332,331,331,331,330,329,329,328,328,327,327,326,326,325,324,324,323,322,322,321,320,320,319,319,318,318,317,316,316,315,315,314,314,313,313,312,312,311,311,310,310,309,309,308,308,307,307,306,306,305,305,305,304,304,303,303,302,301,301,300,300,299,299,298,298,297,297,296,296,295,295,295,294,294,293,293,292,292,291,291,290,290,289,289,289,288,288,287,287,286,286,286,285,285,284,284,283,283,282,282,281,281,281,280,280,279,279,278,278,278,277,277,277,276,276,275,275,274,274,274,273,273,272,272,272,271,270,270,269,269,269,268,268,268,267,267,266,266,265,265,265,264,264,264,263,263,263,262,262,262,261,261,260,260,259,259,259,258,258,257,257,257,256,256,255,255,255,254,254,254,253,253,252,252,251,251,251,250,250,250,249,249,249,248,248,248,247,247,247,246,246,245,245,244,244,244,243,243,243,242,242,242,241,241,241,240,240,240,239,239,239,238,238,237,237,236,236,236,235,235,235,234,234,234,234,233,233,233,232,232,231,231,231,230,230,230,230,229,229,229,228,228,227,227,226,226,226,225,225,225,225,224,224,224,223,223,223,222,222,222,222,221,221,221,220,220,220,219,219,219,218,218,218,217,217,217,217,217,217,217,217,217,217,0,0,0,0,0,0,0,0,0,0,0,0,0,0,0,0,0,0,0,0,0,0,0,0,0,0,0,0,0,0,0,0,0,0,0,0,0,0,0,0,0,0,0
0,0,0,0,0,0,0,0,0,0,0,0,0,0,0,0,0,0,0,0,0,0,0,0,0,0,0,0,0,0,0,0,0,0,0,0,0,0,0,0,0,0,0,0,0,0,0,0,0,0,0,0,0,0,0,0,0,0,0,0,0,0,0,0,0,0,0,0,0,0,0,0,0,0,0,0,0,0,0,0,0,0,0,0,0,0,0,0,0,0,0,0,0,0,0,0,0,0,0,0,0,0,0,0,0,0,0,0,0,0,0,0,0,0,0,0,0,0,0,0,0,0,0,0,0,0,0,0,0,0,0,0,0,0,0,0,0,0,0,0,0,0,0,0,0,0,0,0,0,0,0,0,0,0,0,0,0,0,0,0,0,455,454,454,454,453,453,453,452,451,450,447,443,441,441,439,438,437,435,433,432,432,431,430,429,428,427,426,425,425,424,423,423,422,422,421,420,419,418,416,415,414,413,412,412,411,410,409,408,407,405,404,404,403,402,401,400,400,399,398,397,397,396,395,394,393,392,391,390,390,389,388,388,387,386,385,385,384,383,382,382,381,381,380,379,378,377,376,375,375,374,373,373,372,371,370,369,368,367,367,366,365,365,364,363,363,362,362,361,361,360,359,359,358,357,356,356,355,355,354,353,353,352,351,351,350,349,349,348,347,346,346,345,344,344,343,342,342,342,341,340,340,339,339,338,337,337,336,335,334,334,333,333,332,332,331,331,331,330,330,329,328,328,327,327,326,326,325,324,324,323,322,322,321,320,320,319,319,318,318,317,316,316,315,315,314,314,313,313,312,312,311,311,310,310,309,309,308,308,308,307,307,306,306,305,305,304,304,303,303,302,302,301,301,300,300,299,298,298,297,297,296,296,296,295,295,294,294,293,293,292,292,291,291,290,290,289,289,289,288,288,287,287,286,286,286,285,285,284,284,283,283,282,282,281,281,281,280,280,279,279,278,278,278,277,277,277,276,276,275,275,274,274,274,273,273,273,272,272,271,271,270,270,269,269,268,268,268,267,267,266,266,266,265,265,265,264,264,263,263,263,262,262,262,261,261,260,260,260,259,259,258,258,257,257,257,256,256,256,255,255,254,254,254,253,253,252,252,252,251,251,250,250,250,250,249,249,248,248,248,247,247,247,246,246,245,245,245,244,244,243,243,243,242,242,242,241,241,241,240,240,240,239,239,239,238,238,237,237,236,236,236,235,235,235,234,234,234,234,233,233,233,232,232,231,231,231,230,230,230,230,229,229,229,228,228,227,227,226,226,226,225,225,225,225,224,224,224,223,223,223,222,222,222,222,221,221,221,220,220,220,219,219,219,218,218,218,217,217,217,217,217,217,217,217,217,217,0,0,0,0,0,0,0,0,0,0,0,0,0,0,0,0,0,0,0,0,0,0,0,0,0,0,0,0,0,0,0,0,0,0,0,0,0,0,0,0,0,0,0
0,0,0,0,0,0,0,0,0,0,0,0,0,0,0,0,0,0,0,0,0,0,0,0,0,0,0,0,0,0,0,0,0,0,0,0,0,0,0,0,0,0,0,0,0,0,0,0,0,0,0,0,0,0,0,0,0,0,0,0,0,0,0,0,0,0,0,0,0,0,0,0,0,0,0,0,0,0,0,0,0,0,0,0,0,0,0,0,0,0,0,0,0,0,0,0,0,0,0,0,0,0,0,0,0,0,0,0,0,0,0,0,0,0,0,0,0,0,0,0,0,0,0,0,0,0,0,0,0,0,0,0,0,0,0,0,0,0,0,0,0,0,0,0,0,0,0,0,0,0,0,0,0,0,0,0,0,0,0,0,0,0,0,0,0,453,453,453,452,452,451,0,0,0,441,441,439,439,436,434,433,432,431,430,429,429,428,427,426,425,424,423,423,423,422,421,420,419,418,417,415,414,413,412,412,411,410,409,408,407,406,405,404,403,402,402,401,400,399,398,398,397,396,395,394,393,392,391,391,390,389,389,388,387,386,386,385,384,383,383,382,382,381,380,379,378,377,376,375,375,374,374,373,372,371,370,369,368,368,367,366,366,365,364,364,363,362,362,361,361,360,359,359,358,357,356,356,355,355,354,354,353,352,352,351,350,350,349,348,347,346,346,345,344,344,343,343,342,342,341,341,340,339,339,338,338,337,336,335,335,334,333,333,332,332,332,331,331,330,330,329,329,328,327,327,326,326,325,325,324,323,322,322,321,321,320,319,319,318,318,317,316,316,315,315,314,314,314,313,313,312,311,311,310,310,309,309,308,308,308,307,307,306,306,305,305,304,304,303,303,302,302,301,301,300,300,299,299,298,297,297,297,296,296,295,295,294,294,294,293,293,292,292,291,290,290,290,289,289,288,288,287,287,286,286,286,285,285,284,284,283,283,282,282,282,281,281,280,280,280,279,279,278,278,277,277,277,276,276,275,275,274,274,274,273,273,273,272,272,271,271,270,270,269,269,268,268,268,267,267,266,266,266,265,265,265,264,264,263,263,263,262,262,261,261,261,260,260,260,259,259,258,258,257,257,257,256,256,256,255,255,254,254,254,253,253,253,252,252,251,251,251,250,250,250,249,249,249,248,248,247,247,247,246,246,246,245,245,244,244,243,243,243,243,242,242,241,241,241,240,240,240,239,239,239,238,238,237,237,236,236,236,235,235,235,235,234,234,234,233,233,233,232,232,231,231,231,230,230,230,230,229,229,229,228,228,227,227,227,226,226,225,225,225,225,224,224,224,223,223,223,222,222,222,222,221,221,221,220,220,220,219,219,219,218,218,218,217,217,217,217,217,217,217,217,217,217,0,0,0,0,0,0,0,0,0,0,0,0,0,0,0,0,0,0,0,0,0,0,0,0,0,0,0,0,0,0,0,0,0,0,0,0,0,0,0,0,0,0,0
0,0,0,0,0,0,0,0,0,0,0,0,0,0,0,0,0,0,0,0,0,0,0,0,0,0,0,0,0,0,0,0,0,0,0,0,0,0,0,0,0,0,0,0,0,0,0,0,0,0,0,0,0,0,0,0,0,0,0,0,0,0,0,0,0,0,0,0,0,0,0,0,0,0,0,0,0,0,0,0,0,0,0,0,0,0,0,0,0,0,0,0,0,0,0,0,0,0,0,0,0,0,0,0,0,0,0,0,0,0,0,0,0,0,0,0,0,0,0,0,0,0,0,0,0,0,0,0,0,0,0,0,0,0,0,0,0,0,0,0,0,0,0,0,0,0,0,0,0,0,0,0,0,0,0,0,0,0,0,0,0,0,0,0,0,0,453,453,452,452,0,0,0,0,442,441,440,439,436,434,433,432,431,431,430,429,428,427,426,425,424,424,423,423,422,422,421,420,418,417,416,414,413,413,412,411,410,409,408,407,406,405,404,403,403,402,401,400,399,398,398,397,396,395,394,393,392,391,391,390,389,389,388,387,387,386,385,384,384,383,382,382,381,380,379,378,377,376,375,375,374,374,373,372,371,370,369,369,368,367,366,366,365,364,364,363,363,362,362,361,360,360,359,358,357,357,356,355,355,354,354,353,352,352,351,350,350,349,348,347,346,346,345,344,344,343,343,342,342,341,341,340,340,339,338,338,337,336,336,335,334,333,333,332,332,332,331,331,330,330,329,329,328,327,327,326,326,325,325,324,323,322,322,321,321,320,320,319,319,318,317,317,316,315,315,315,314,314,313,313,312,311,311,310,310,309,309,309,308,308,307,307,306,306,305,305,304,304,303,303,302,302,301,301,300,300,299,299,298,297,297,297,296,296,295,295,295,294,294,293,293,292,292,291,291,290,290,289,289,288,288,287,287,287,286,286,285,285,285,284,283,283,282,282,282,281,281,281,280,280,279,279,278,278,278,277,277,276,276,275,275,274,274,274,273,273,273,272,272,271,271,270,270,269,269,268,268,268,267,267,267,266,266,265,265,265,264,264,263,263,263,262,262,261,261,261,260,260,260,259,259,258,258,257,257,257,256,256,256,255,255,255,254,254,254,253,253,252,252,251,251,251,250,250,250,249,249,249,248,248,247,247,247,246,246,246,245,245,244,244,244,243,243,243,242,242,242,241,241,240,240,240,239,239,239,238,238,237,237,237,236,236,236,235,235,235,234,234,234,233,233,233,232,232,231,231,231,230,230,230,230,229,229,229,228,228,228,227,227,226,226,226,225,225,225,224,224,224,224,223,223,222,222,222,222,221,221,221,220,220,220,219,219,219,218,218,218,217,217,217,217,217,217,217,217,217,217,0,0,0,0,0,0,0,0,0,0,0,0,0,0,0,0,0,0,0,0,0,0,0,0,0,0,0,0,0,0,0,0,0,0,0,0,0,0,0,0,0,0,0
0,0,0,0,0,0,0,0,0,0,0,0,0,0,0,0,0,0,0,0,0,0,0,0,0,0,0,0,0,0,0,0,0,0,0,0,0,0,0,0,0,0,0,0,0,0,0,0,0,0,0,0,0,0,0,0,0,0,0,0,0,0,0,0,0,0,0,0,0,0,0,0,0,0,0,0,0,0,0,0,0,0,0,0,0,0,0,0,0,0,0,0,0,0,0,0,0,0,0,0,0,0,0,0,0,0,0,0,0,0,0,0,0,0,0,0,0,0,0,0,0,0,0,0,0,0,0,0,0,0,0,0,0,0,0,0,0,0,0,0,0,0,0,0,0,0,0,0,0,0,0,0,0,0,0,0,0,0,0,0,0,0,0,0,0,0,0,453,453,0,0,0,0,0,442,442,440,439,437,434,433,432,431,431,430,429,428,427,426,425,425,424,423,423,423,422,421,420,419,417,416,414,414,413,412,411,411,410,409,408,407,406,405,404,403,402,401,400,399,399,398,397,396,395,394,393,392,391,391,390,390,389,388,387,387,386,385,385,384,383,383,382,381,381,380,378,377,376,376,375,375,374,373,372,371,370,370,369,368,367,367,366,365,364,364,363,363,362,362,361,360,360,359,358,357,357,356,356,355,354,354,353,353,352,351,350,350,349,348,347,347,346,345,345,344,344,343,342,342,341,341,340,340,339,338,338,337,336,336,335,334,333,333,332,332,332,331,331,331,330,330,329,328,328,327,326,326,325,325,324,323,322,322,321,321,320,320,319,319,318,317,317,316,316,315,315,314,314,313,313,312,312,311,311,310,310,309,309,308,308,307,307,306,306,305,305,304,304,304,303,302,302,301,301,300,300,299,299,298,298,297,297,296,296,295,295,295,294,294,293,293,292,292,291,291,290,290,289,289,288,288,288,287,287,286,286,285,285,285,284,283,283,282,282,282,281,281,281,280,280,279,279,278,278,278,277,277,276,276,275,275,274,274,274,273,273,273,272,272,271,271,270,270,269,269,269,268,268,267,267,267,266,266,265,265,265,264,264,263,263,263,262,262,261,261,261,260,260,260,259,259,258,258,257,257,257,256,256,256,255,255,255,254,254,254,253,253,252,252,251,251,251,250,250,250,249,249,249,248,248,248,247,247,246,246,246,245,245,244,244,244,243,243,243,242,242,242,241,241,240,240,240,239,239,239,238,238,237,237,237,236,236,236,235,235,235,234,234,234,233,233,233,232,232,231,231,231,230,230,230,230,229,229,229,228,228,228,227,227,226,226,226,225,225,225,224,224,224,224,223,223,223,222,222,222,221,221,221,220,220,220,219,219,219,218,218,218,218,217,217,217,217,217,217,217,217,217,0,0,0,0,0,0,0,0,0,0,0,0,0,0,0,0,0,0,0,0,0,0,0,0,0,0,0,0,0,0,0,0,0,0,0,0,0,0,0,0,0,0,0
0,0,0,0,0,0,0,0,0,0,0,0,0,0,0,0,0,0,0,0,0,0,0,0,0,0,0,0,0,0,0,0,0,0,0,0,0,0,0,0,0,0,0,0,0,0,0,0,0,0,0,0,0,0,0,0,0,0,0,0,0,0,0,0,0,0,0,0,0,0,0,0,0,0,0,0,0,0,0,0,0,0,0,0,0,0,0,0,0,0,0,0,0,0,0,0,0,0,0,0,0,0,0,0,0,0,0,0,0,0,0,0,0,0,0,0,0,0,0,0,0,0,0,0,0,0,0,0,0,0,0,0,0,0,0,0,0,0,0,0,0,0,0,0,0,0,0,0,0,0,0,0,0,0,0,0,0,0,0,0,0,0,0,0,0,0,0,0,0,0,0,0,0,0,443,442,439,438,437,435,434,432,432,431,430,430,429,428,427,426,425,424,424,423,423,422,421,420,419,417,416,415,414,413,412,412,411,410,409,408,407,406,405,404,403,402,401,400,400,399,398,397,396,396,394,393,392,391,391,390,390,389,388,388,387,386,385,385,384,384,383,382,382,381,380,379,377,377,376,375,375,374,373,373,372,371,370,369,368,368,367,366,365,365,364,363,363,362,362,361,361,360,359,358,358,357,356,356,355,354,354,353,353,352,351,351,350,349,348,348,347,346,345,345,344,344,343,343,342,342,341,340,340,339,338,338,337,336,336,335,334,334,333,333,332,332,331,331,331,330,330,329,328,328,327,327,326,325,325,324,323,323,322,321,321,320,320,319,319,318,318,317,316,316,315,315,314,314,313,313,312,312,311,311,310,310,309,309,308,308,307,307,306,306,305,305,305,304,304,303,303,302,301,301,300,300,299,299,298,298,297,297,296,296,296,295,295,294,294,293,293,292,292,291,291,290,290,289,289,289,288,288,287,287,286,286,286,285,285,284,284,283,283,282,282,281,281,281,280,280,279,279,278,278,278,277,277,276,276,275,275,274,274,274,273,273,273,272,272,272,271,270,270,269,269,269,268,268,267,267,267,266,266,266,265,265,264,264,263,263,263,262,262,261,261,261,260,260,259,259,259,258,258,257,257,257,256,256,256,255,255,255,254,254,254,253,253,252,252,251,251,251,250,250,250,250,249,249,248,248,248,247,247,247,246,246,245,245,244,244,244,244,243,243,243,242,242,241,241,240,240,240,239,239,239,238,238,237,237,237,236,236,236,235,235,235,234,234,234,233,233,233,232,232,231,231,231,230,230,230,230,229,229,229,228,228,228,227,227,226,226,226,225,225,225,225,224,224,224,223,223,223,222,222,222,221,221,221,220,220,220,219,219,219,218,218,218,218,217,217,217,217,217,217,217,217,217,0,0,0,0,0,0,0,0,0,0,0,0,0,0,0,0,0,0,0,0,0,0,0,0,0,0,0,0,0,0,0,0,0,0,0,0,0,0,0,0,0,0,0
0,0,0,0,0,0,0,0,0,0,0,0,0,0,0,0,0,0,0,0,0,0,0,0,0,0,0,0,0,0,0,0,0,0,0,0,0,0,0,0,0,0,0,0,0,0,0,0,0,0,0,0,0,0,0,0,0,0,0,0,0,0,0,0,0,0,0,0,0,0,0,0,0,0,0,0,0,0,0,0,0,0,0,0,0,0,0,0,0,0,0,0,0,0,0,0,0,0,0,0,0,0,0,0,0,0,0,0,0,0,0,0,0,0,0,0,0,0,0,0,0,0,0,0,0,0,0,0,0,0,0,0,0,0,0,0,0,0,0,0,0,0,0,0,0,0,0,0,0,0,0,0,0,0,0,0,0,0,0,0,0,0,0,0,0,0,0,0,0,0,0,0,0,447,445,442,439,438,437,435,434,433,432,431,431,430,429,428,427,426,425,424,424,423,423,422,422,420,419,417,416,415,414,413,413,412,411,410,409,408,407,407,406,405,404,402,402,401,400,399,398,397,397,396,394,393,392,392,391,390,390,389,388,388,387,386,385,385,384,384,383,383,382,381,380,379,378,377,376,376,375,375,374,373,372,371,370,369,369,368,367,366,365,365,364,364,363,363,362,361,361,360,359,358,358,357,356,356,355,355,354,353,353,352,351,351,350,349,349,348,347,346,345,345,344,344,343,343,342,342,341,340,340,339,338,338,337,336,336,335,334,334,333,333,332,332,332,331,331,330,330,329,328,328,327,327,326,326,325,324,323,323,322,321,321,320,320,319,319,318,318,317,316,316,315,315,314,314,314,313,313,312,311,311,310,310,309,309,308,308,307,307,306,306,306,305,305,304,304,303,303,302,302,301,300,300,300,299,298,298,297,297,297,296,296,295,295,294,294,293,293,292,292,291,291,290,290,290,289,289,288,288,287,287,286,286,286,285,285,284,284,283,283,282,282,282,281,281,280,280,279,279,279,278,278,277,277,277,276,276,275,275,274,274,273,273,273,272,272,272,271,271,270,270,269,269,268,268,268,267,267,266,266,266,265,265,264,264,263,263,263,262,262,261,261,261,260,260,259,259,259,258,258,257,257,257,256,256,256,255,255,255,254,254,254,253,253,252,252,251,251,251,251,250,250,250,249,249,248,248,248,247,247,247,246,246,245,245,244,244,244,244,243,243,243,242,242,241,241,240,240,240,239,239,239,238,238,238,237,237,236,236,236,235,235,235,234,234,234,233,233,233,232,232,232,231,231,231,230,230,230,229,229,229,228,228,228,227,227,226,226,226,225,225,225,225,224,224,224,223,223,223,222,222,222,221,221,221,220,220,220,219,219,219,218,218,218,218,217,217,217,217,217,217,217,217,217,0,0,0,0,0,0,0,0,0,0,0,0,0,0,0,0,0,0,0,0,0,0,0,0,0,0,0,0,0,0,0,0,0,0,0,0,0,0,0,0,0,0,0
0,0,0,0,0,0,0,0,0,0,0,0,0,0,0,0,0,0,0,0,0,0,0,0,0,0,0,0,0,0,0,0,0,0,0,0,0,0,0,0,0,0,0,0,0,0,0,0,0,0,0,0,0,0,0,0,0,0,0,0,0,0,0,0,0,0,0,0,0,0,0,0,0,0,0,0,0,0,0,0,0,0,0,0,0,0,0,0,0,0,0,0,0,0,0,0,0,0,0,0,0,0,0,0,0,0,0,0,0,0,0,0,0,0,0,0,0,0,0,0,0,0,0,0,0,0,0,0,0,0,0,0,0,0,0,0,0,0,0,0,0,0,0,0,0,0,0,0,0,0,0,0,0,0,0,0,0,0,0,0,0,0,0,0,0,0,0,0,0,0,0,0,0,447,446,442,440,438,437,435,434,433,432,431,431,430,429,428,427,426,425,425,424,424,423,423,422,421,419,417,416,415,414,413,413,412,411,410,409,408,408,407,406,405,404,403,402,401,400,399,398,397,397,396,395,393,392,392,391,390,390,389,389,388,387,386,386,385,384,384,383,383,382,381,380,379,378,377,377,376,375,375,374,373,372,371,371,370,369,368,367,366,365,365,364,364,363,363,362,361,361,360,359,359,358,357,356,356,355,355,354,354,353,352,352,351,350,350,349,348,347,346,346,345,345,344,343,343,342,342,341,340,340,339,338,338,337,337,336,335,335,334,334,333,333,332,332,331,331,330,330,329,329,328,327,327,326,326,325,324,324,323,322,322,321,320,320,320,319,318,318,317,317,316,316,315,315,314,314,313,313,312,311,311,310,310,310,309,309,308,308,307,307,306,306,305,305,304,304,303,303,302,302,301,301,300,300,299,299,298,298,297,297,296,296,295,295,294,294,294,293,293,292,291,291,290,290,290,289,289,288,288,287,287,286,286,286,285,285,284,284,283,283,282,282,282,281,281,280,280,280,279,279,278,278,278,277,277,276,276,275,275,274,274,273,273,273,272,272,272,271,271,270,270,269,269,268,268,268,267,267,267,266,266,265,265,264,264,263,263,263,262,262,262,261,261,260,260,259,259,259,258,258,257,257,257,256,256,256,255,255,255,254,254,254,253,253,252,252,251,251,251,251,250,250,250,249,249,249,248,248,247,247,247,246,246,245,245,244,244,244,244,243,243,243,242,242,241,241,241,240,240,239,239,239,238,238,238,237,237,236,236,236,235,235,235,234,234,234,233,233,233,233,232,232,231,231,231,230,230,230,229,229,229,228,228,228,227,227,226,226,226,225,225,225,225,224,224,224,223,223,223,222,222,222,221,221,221,220,220,220,219,219,219,218,218,218,218,218,217,217,217,217,217,217,217,0,0,0,0,0,0,0,0,0,0,0,0,0,0,0,0,0,0,0,0,0,0,0,0,0,0,0,0,0,0,0,0,0,0,0,0,0,0,0,0,0,0,0,0
0,0,0,0,0,0,0,0,0,0,0,0,0,0,0,0,0,0,0,0,0,0,0,0,0,0,0,0,0,0,0,0,0,0,0,0,0,0,0,0,0,0,0,0,0,0,0,0,0,0,0,0,0,0,0,0,0,0,0,0,0,0,0,0,0,0,0,0,0,0,0,0,0,0,0,0,0,0,0,0,0,0,0,0,0,0,0,0,0,0,0,0,0,0,0,0,0,0,0,0,0,0,0,0,0,0,0,0,0,0,0,0,0,0,0,0,0,0,0,0,0,0,0,0,0,0,0,0,0,0,0,0,0,0,0,0,0,0,0,0,0,0,0,0,0,0,0,0,0,0,0,0,0,0,0,0,0,0,0,0,0,0,0,0,0,0,0,0,0,0,0,0,0,447,446,443,440,438,437,435,434,433,432,431,431,430,429,428,427,426,425,425,424,424,423,423,422,421,420,418,416,415,414,413,413,412,411,410,409,408,407,407,406,405,404,403,402,401,400,399,398,398,397,396,395,393,392,392,391,391,390,390,389,388,387,386,386,385,384,384,383,383,382,382,381,379,378,378,377,376,376,375,374,373,372,371,371,370,369,368,367,366,366,365,364,364,363,363,362,362,361,360,360,359,358,357,356,356,355,355,354,354,353,352,352,351,350,350,349,348,347,347,346,345,345,344,344,343,343,342,341,341,340,339,339,338,337,337,336,336,335,334,334,333,333,332,332,331,331,330,330,329,329,328,327,327,326,326,325,325,324,323,322,322,321,321,320,320,319,319,318,317,317,316,316,315,315,314,314,313,313,312,312,311,311,310,310,309,309,308,308,307,307,306,306,305,305,304,304,303,303,302,302,301,301,300,300,299,299,298,298,297,297,296,296,296,295,295,294,294,293,293,292,292,291,291,290,290,289,289,288,288,287,287,286,286,286,285,285,284,284,283,283,282,282,282,281,281,280,280,280,279,279,278,278,278,277,277,276,276,275,275,274,274,273,273,273,272,272,272,271,271,270,270,269,269,268,268,268,267,267,267,266,266,265,265,264,264,263,263,263,262,262,262,261,261,260,260,259,259,259,258,258,258,257,257,256,256,256,255,255,255,255,254,254,253,253,252,252,252,251,251,251,250,250,250,249,249,249,248,248,247,247,247,246,246,245,245,245,244,244,244,243,243,243,242,242,241,241,241,240,240,239,239,239,238,238,238,237,237,236,236,236,235,235,235,234,234,234,233,233,233,233,232,232,231,231,231,230,230,230,229,229,229,228,228,228,227,227,226,226,226,226,225,225,225,224,224,224,223,223,223,222,222,222,221,221,221,220,220,220,219,219,219,218,218,218,218,218,217,217,217,217,217,217,217,0,0,0,0,0,0,0,0,0,0,0,0,0,0,0,0,0,0,0,0,0,0,0,0,0,0,0,0,0,0,0,0,0,0,0,0,0,0,0,0,0,0,0,0
0,0,0,0,0,0,0,0,0,0,0,0,0,0,0,0,0,0,0,0,0,0,0,0,0,0,0,0,0,0,0,0,0,0,0,0,0,0,0,0,0,0,0,0,0,0,0,0,0,0,0,0,0,0,0,0,0,0,0,0,0,0,0,0,0,0,0,0,0,0,0,0,0,0,0,0,0,0,0,0,0,0,0,0,0,0,0,0,0,0,0,0,0,0,0,0,0,0,0,0,0,0,0,0,0,0,0,0,0,0,0,0,0,0,0,0,0,0,0,0,0,0,0,0,0,0,0,0,0,0,0,0,0,0,0,0,0,0,0,0,0,0,0,0,0,0,0,0,0,0,0,0,0,0,0,0,0,0,0,0,0,0,0,0,0,0,0,0,0,0,0,0,0,447,0,0,440,439,437,435,434,433,432,431,431,430,429,428,427,426,425,425,424,424,424,423,422,421,420,418,416,415,414,414,413,413,412,410,409,408,407,407,406,405,404,403,402,401,400,399,399,398,397,396,395,393,392,392,391,391,390,390,389,388,387,386,386,385,385,384,384,383,382,382,381,380,379,378,377,377,376,375,375,374,373,372,371,370,369,368,368,367,366,365,365,364,363,363,362,362,361,360,360,359,358,357,356,356,355,355,354,354,353,353,352,351,351,350,349,348,348,347,346,345,345,344,344,343,343,342,341,341,340,339,339,338,338,337,337,336,335,335,334,333,333,332,332,331,331,330,330,329,329,328,327,327,326,326,325,325,324,323,323,322,321,321,320,320,319,319,318,317,317,316,316,315,315,314,314,313,313,312,312,311,311,310,310,309,309,308,308,307,307,306,306,305,305,305,304,304,303,302,302,301,301,300,300,299,299,298,298,297,297,296,296,296,295,295,294,294,293,293,292,292,291,291,290,290,289,289,288,288,287,287,287,286,286,285,285,284,284,283,283,283,282,282,281,281,280,280,280,279,279,278,278,278,277,277,276,276,275,275,274,274,273,273,273,272,272,272,271,271,270,270,269,269,269,268,268,267,267,267,266,266,265,265,264,264,264,263,263,262,262,262,261,261,260,260,260,259,259,258,258,258,257,257,256,256,256,255,255,255,255,254,254,253,253,252,252,252,251,251,251,250,250,250,249,249,249,248,248,247,247,247,246,246,245,245,245,244,244,244,244,243,243,242,242,242,241,241,240,240,239,239,239,238,238,238,237,237,236,236,236,235,235,235,234,234,234,233,233,233,233,232,232,231,231,231,230,230,230,229,229,229,229,228,228,227,227,226,226,226,226,225,225,225,224,224,224,223,223,223,222,222,222,221,221,221,220,220,220,219,219,219,218,218,218,218,218,217,217,217,217,217,217,217,0,0,0,0,0,0,0,0,0,0,0,0,0,0,0,0,0,0,0,0,0,0,0,0,0,0,0,0,0,0,0,0,0,0,0,0,0,0,0,0,0,0,0,0
0,0,0,0,0,0,0,0,0,0,0,0,0,0,0,0,0,0,0,0,0,0,0,0,0,0,0,0,0,0,0,0,0,0,0,0,0,0,0,0,0,0,0,0,0,0,0,0,0,0,0,0,0,0,0,0,0,0,0,0,0,0,0,0,0,0,0,0,0,0,0,0,0,0,0,0,0,0,0,0,0,0,0,0,0,0,0,0,0,0,0,0,0,0,0,0,0,0,0,0,0,0,0,0,0,0,0,0,0,0,0,0,0,0,0,0,0,0,0,0,0,0,0,0,0,0,0,0,0,0,0,0,0,0,0,0,0,0,0,0,0,0,0,0,0,0,0,0,0,0,0,0,0,0,0,0,0,0,0,0,0,0,0,0,0,0,0,0,0,0,0,449,447,0,0,0,0,439,437,436,435,433,432,432,431,430,429,428,427,426,425,425,425,424,424,423,423,422,421,418,416,415,414,414,413,413,412,411,410,408,407,407,406,406,405,404,403,402,401,400,399,398,397,396,394,393,392,392,391,391,391,390,389,388,387,386,386,385,385,384,384,383,382,382,381,380,379,378,378,377,376,376,375,374,373,372,371,370,369,369,368,367,366,366,365,364,364,363,362,362,361,361,360,359,358,357,357,356,356,355,355,354,353,353,352,352,351,350,349,349,348,347,346,346,345,344,344,343,343,342,342,341,340,340,339,338,338,337,337,336,336,335,334,334,333,333,332,332,331,330,330,329,329,328,327,327,326,326,325,325,324,323,323,322,322,321,321,320,319,319,318,317,317,316,316,315,315,315,314,314,313,312,312,311,311,310,310,309,309,308,308,307,307,306,306,306,305,305,304,304,303,302,302,301,301,300,300,299,299,298,298,297,297,297,296,296,295,295,294,294,293,293,292,292,291,291,290,290,289,289,288,288,288,287,287,286,286,285,285,284,284,283,283,283,282,282,281,281,281,280,280,279,279,278,278,278,277,277,276,276,275,275,274,274,274,273,273,272,272,272,271,271,270,270,269,269,269,268,268,267,267,267,266,266,265,265,264,264,264,263,263,262,262,262,261,261,261,260,260,259,259,258,258,258,257,257,256,256,256,255,255,255,255,254,254,253,253,253,252,252,251,251,251,250,250,250,249,249,249,248,248,247,247,247,246,246,246,245,245,245,244,244,244,243,243,242,242,242,241,241,240,240,240,239,239,238,238,238,237,237,236,236,236,235,235,235,234,234,234,233,233,233,233,232,232,231,231,231,230,230,230,230,229,229,229,228,228,227,227,227,226,226,226,225,225,225,224,224,224,223,223,223,222,222,222,221,221,220,220,220,220,219,219,219,218,218,218,218,218,217,217,217,217,217,217,217,217,0,0,0,0,0,0,0,0,0,0,0,0,0,0,0,0,0,0,0,0,0,0,0,0,0,0,0,0,0,0,0,0,0,0,0,0,0,0,0,0,0,0,0
