0.0,0.0,0.0,0.0,0.0,0.0,0.0,0.0,0.0,0.0,0.0,0.0,0.0,0.0,0.0,0.0,0.0,0.0,0.0,0.0,0.0,0.0,0.0,0.0,0.0,0.0,0.0,0.0,0.0,0.0,0.0,0.0,0.0,0.0,0.0,0.0,0.0,0.0,0.0,0.0,0.0,0.0,0.0,0.0,0.0,0.0,0.0,2.4304632924,2.41508061333,2.39969793427,2.3843152552,2.36893257614,2.36893257614,2.35354989707,2.33816721801,2.32278453894,2.30740185987,2.29201918081,2.27663650174,2.26125382268,2.24587114361,2.24587114361,2.24587114361,2.23048846454,2.21510578548,2.18434042735,2.15357506922,2.12280971108,2.10742703202,2.09204435295,2.07666167389,2.06127899482,2.04589631575,2.03051363669,1.99974827856,1.98436559949,1.98436559949,1.96898292043,1.95360024136,1.95360024136,1.93821756229,1.93821756229,1.92283488323,1.92283488323,1.90745220416,1.87668684603,1.8459214879,1.83053880883,1.81515612977,1.81515612977,1.7997734507,1.7997734507,1.78439077164,1.76900809257,1.7536254135,1.73824273444,1.72286005537,1.72286005537,1.70747737631,1.70747737631,1.69209469724,1.67671201817,1.64594666004,1.63056398098,1.61518130191,1.59979862285,1.58441594378,1.56903326471,1.56903326471,1.55365058565,1.53826790658,1.53826790658,1.52288522752,1.50750254845,1.49211986938,1.49211986938,1.47673719032,1.46135451125,1.46135451125,1.44597183219,1.43058915312,1.41520647406,1.39982379499,1.38444111592,1.36905843686,1.36905843686,1.35367575779,1.35367575779,1.33829307873,1.33829307873,1.32291039966,1.3075277206,1.29214504153,1.27676236246,1.27676236246,1.2613796834,1.2613796834,1.24599700433,1.23061432527,1.23061432527,1.2152316462,1.19984896713,1.18446628807,1.169083609,1.15370092994,1.15370092994,1.13831825087,1.12293557181,1.10755289274,1.09217021367,1.07678753461,1.07678753461,1.06140485554,1.06140485554,1.04602217648,1.04602217648,1.03063949741,1.03063949741,1.01525681834,1.01525681834,0.999874139279,0.984491460213,0.969108781147,0.969108781147,0.953726102081,0.938343423015,0.938343423015,0.922960743949,0.922960743949,0.907578064884,0.892195385818,0.892195385818,0.876812706752,0.876812706752,0.861430027686,0.84604734862,0.830664669555,0.815281990489,0.815281990489,0.799899311423,0.799899311423,0.784516632357,0.784516632357,0.769133953291,0.753751274225,0.753751274225,0.73836859516,0.722985916094,0.722985916094,0.707603237028,0.692220557962,0.692220557962,0.676837878896,0.676837878896,0.66145519983,0.66145519983,0.646072520765,0.646072520765,0.630689841699,0.615307162633,0.615307162633,0.599924483567,0.599924483567,0.584541804501,0.584541804501,0.569159125435,0.569159125435,0.55377644637,0.55377644637,0.538393767304,0.523011088238,0.523011088238,0.507628409172,0.507628409172,0.492245730106,0.492245730106,0.476863051041,0.476863051041,0.461480371975,0.446097692909,0.446097692909,0.430715013843,0.430715013843,0.415332334777,0.415332334777,0.399949655711,0.399949655711,0.384566976646,0.384566976646,0.36918429758,0.36918429758,0.353801618514,0.353801618514,0.338418939448,0.338418939448,0.323036260382,0.307653581316,0.307653581316,0.292270902251,0.292270902251,0.276888223185,0.276888223185,0.261505544119,0.261505544119,0.246122865053,0.246122865053,0.230740185987,0.230740185987,0.230740185987,0.215357506922,0.215357506922,0.199974827856,0.18459214879,0.18459214879,0.169209469724,0.169209469724,0.153826790658,0.153826790658,0.138444111592,0.138444111592,0.123061432527,0.123061432527,0.123061432527,0.107678753461,0.107678753461,0.0922960743949,0.0922960743949,0.0769133953291,0.0769133953291,0.0615307162633,0.0615307162633,0.0461480371975,0.0461480371975,0.0307653581316,0.0307653581316,0.0153826790658,0.0153826790658,0.0,0.0,-0.0153826790658,-0.0153826790658,-0.0153826790658,-0.0307653581316,-0.0307653581316,-0.0461480371975,-0.0461480371975,-0.0461480371975,-0.0615307162633,-0.0615307162633,-0.0769133953291,-0.0769133953291,-0.0922960743949,-0.0922960743949,-0.0922960743949,-0.107678753461,-0.107678753461,-0.123061432527,-0.123061432527,-0.138444111592,-0.138444111592,-0.153826790658,-0.153826790658,-0.153826790658,-0.169209469724,-0.169209469724,-0.18459214879,-0.18459214879,-0.199974827856,-0.199974827856,-0.199974827856,-0.215357506922,-0.215357506922,-0.230740185987,-0.230740185987,-0.230740185987,-0.246122865053,-0.246122865053,-0.261505544119,-0.261505544119,-0.261505544119,-0.276888223185,-0.276888223185,-0.292270902251,-0.292270902251,-0.307653581316,-0.307653581316,-0.307653581316,-0.323036260382,-0.323036260382,-0.323036260382,-0.338418939448,-0.338418939448,-0.353801618514,-0.353801618514,-0.353801618514,-0.36918429758,-0.36918429758,-0.384566976646,-0.384566976646,-0.384566976646,-0.399949655711,-0.399949655711,-0.415332334777,-0.415332334777,-0.430715013843,-0.430715013843,-0.446097692909,-0.446097692909,-0.446097692909,-0.461480371975,-0.461480371975,-0.461480371975,-0.476863051041,-0.476863051041,-0.476863051041,-0.492245730106,-0.492245730106,-0.507628409172,-0.507628409172,-0.507628409172,-0.523011088238,-0.523011088238,-0.538393767304,-0.538393767304,-0.538393767304,-0.538393767304,-0.55377644637,-0.55377644637,-0.55377644637,-0.569159125435,-0.569159125435,-0.584541804501,-0.584541804501,-0.584541804501,-0.599924483567,-0.599924483567,-0.615307162633,-0.615307162633,-0.630689841699,-0.630689841699,-0.630689841699,-0.646072520765,-0.646072520765,-0.646072520765,-0.66145519983,-0.66145519983,-0.66145519983,-0.676837878896,-0.676837878896,-0.676837878896,-0.692220557962,-0.692220557962,-0.692220557962,-0.707603237028,-0.707603237028,-0.722985916094,-0.722985916094,-0.722985916094,-0.73836859516,-0.73836859516,-0.73836859516,-0.753751274225,-0.753751274225,-0.769133953291,-0.769133953291,-0.769133953291,-0.784516632357,-0.784516632357,-0.784516632357,-0.799899311423,-0.799899311423,-0.799899311423,-0.799899311423,-0.815281990489,-0.815281990489,-0.830664669555,-0.830664669555,-0.830664669555,-0.84604734862,-0.84604734862,-0.861430027686,-0.861430027686,-0.861430027686,-0.876812706752,-0.876812706752,-0.892195385818,-0.892195385818,-0.892195385818,-0.892195385818,-0.907578064884,-0.907578064884,-0.907578064884,-0.922960743949,-0.922960743949,-0.922960743949,-0.938343423015,-0.938343423015,-0.938343423015,-0.938343423015,-0.953726102081,-0.953726102081,-0.953726102081,-0.969108781147,-0.969108781147,-0.984491460213,-0.984491460213,-0.984491460213
0.0,0.0,0.0,0.0,0.0,0.0,0.0,0.0,0.0,0.0,0.0,0.0,0.0,0.0,0.0,0.0,0.0,0.0,0.0,0.0,0.0,0.0,0.0,0.0,0.0,0.0,0.0,0.0,0.0,0.0,0.0,0.0,0.0,0.0,0.0,0.0,0.0,0.0,0.0,0.0,0.0,0.0,0.0,0.0,0.0,0.0,2.46122865053,2.4304632924,2.41508061333,2.39969793427,2.3843152552,2.36893257614,2.36893257614,2.35354989707,2.33816721801,2.32278453894,2.30740185987,2.29201918081,2.27663650174,2.26125382268,2.26125382268,2.24587114361,2.24587114361,2.23048846454,2.21510578548,2.18434042735,2.15357506922,2.12280971108,2.10742703202,2.09204435295,2.07666167389,2.06127899482,2.04589631575,2.03051363669,2.01513095762,1.99974827856,1.98436559949,1.96898292043,1.96898292043,1.95360024136,1.93821756229,1.93821756229,1.92283488323,1.92283488323,1.90745220416,1.87668684603,1.86130416696,1.8459214879,1.83053880883,1.81515612977,1.81515612977,1.7997734507,1.78439077164,1.76900809257,1.7536254135,1.73824273444,1.72286005537,1.72286005537,1.70747737631,1.70747737631,1.69209469724,1.67671201817,1.64594666004,1.63056398098,1.61518130191,1.59979862285,1.58441594378,1.58441594378,1.56903326471,1.55365058565,1.55365058565,1.53826790658,1.52288522752,1.50750254845,1.50750254845,1.49211986938,1.47673719032,1.46135451125,1.46135451125,1.44597183219,1.43058915312,1.41520647406,1.39982379499,1.38444111592,1.36905843686,1.36905843686,1.35367575779,1.35367575779,1.33829307873,1.33829307873,1.32291039966,1.3075277206,1.29214504153,1.27676236246,1.27676236246,1.2613796834,1.2613796834,1.24599700433,1.23061432527,1.23061432527,1.2152316462,1.19984896713,1.18446628807,1.169083609,1.169083609,1.15370092994,1.13831825087,1.12293557181,1.10755289274,1.09217021367,1.09217021367,1.07678753461,1.06140485554,1.06140485554,1.04602217648,1.04602217648,1.03063949741,1.03063949741,1.01525681834,1.01525681834,0.999874139279,0.984491460213,0.969108781147,0.969108781147,0.953726102081,0.938343423015,0.938343423015,0.922960743949,0.922960743949,0.907578064884,0.907578064884,0.892195385818,0.876812706752,0.876812706752,0.861430027686,0.84604734862,0.830664669555,0.830664669555,0.815281990489,0.799899311423,0.799899311423,0.784516632357,0.784516632357,0.769133953291,0.769133953291,0.753751274225,0.73836859516,0.73836859516,0.722985916094,0.707603237028,0.707603237028,0.692220557962,0.676837878896,0.676837878896,0.66145519983,0.66145519983,0.646072520765,0.646072520765,0.630689841699,0.615307162633,0.615307162633,0.599924483567,0.599924483567,0.599924483567,0.584541804501,0.584541804501,0.569159125435,0.569159125435,0.55377644637,0.538393767304,0.523011088238,0.523011088238,0.507628409172,0.507628409172,0.492245730106,0.492245730106,0.476863051041,0.476863051041,0.461480371975,0.461480371975,0.446097692909,0.446097692909,0.430715013843,0.430715013843,0.415332334777,0.415332334777,0.399949655711,0.384566976646,0.384566976646,0.36918429758,0.36918429758,0.353801618514,0.353801618514,0.338418939448,0.338418939448,0.323036260382,0.323036260382,0.307653581316,0.307653581316,0.292270902251,0.276888223185,0.276888223185,0.261505544119,0.261505544119,0.246122865053,0.246122865053,0.246122865053,0.230740185987,0.230740185987,0.215357506922,0.215357506922,0.199974827856,0.199974827856,0.18459214879,0.18459214879,0.169209469724,0.153826790658,0.153826790658,0.138444111592,0.138444111592,0.123061432527,0.123061432527,0.123061432527,0.107678753461,0.107678753461,0.0922960743949,0.0922960743949,0.0769133953291,0.0769133953291,0.0615307162633,0.0615307162633,0.0461480371975,0.0461480371975,0.0461480371975,0.0307653581316,0.0307653581316,0.0153826790658,0.0,0.0,0.0,-0.0153826790658,-0.0153826790658,-0.0307653581316,-0.0307653581316,-0.0307653581316,-0.0461480371975,-0.0461480371975,-0.0615307162633,-0.0615307162633,-0.0769133953291,-0.0769133953291,-0.0922960743949,-0.0922960743949,-0.0922960743949,-0.107678753461,-0.107678753461,-0.123061432527,-0.123061432527,-0.138444111592,-0.138444111592,-0.153826790658,-0.153826790658,-0.153826790658,-0.169209469724,-0.169209469724,-0.18459214879,-0.18459214879,-0.199974827856,-0.199974827856,-0.199974827856,-0.215357506922,-0.215357506922,-0.230740185987,-0.230740185987,-0.230740185987,-0.246122865053,-0.246122865053,-0.246122865053,-0.261505544119,-0.261505544119,-0.276888223185,-0.276888223185,-0.292270902251,-0.292270902251,-0.292270902251,-0.307653581316,-0.307653581316,-0.323036260382,-0.323036260382,-0.323036260382,-0.338418939448,-0.338418939448,-0.338418939448,-0.353801618514,-0.353801618514,-0.36918429758,-0.36918429758,-0.36918429758,-0.384566976646,-0.384566976646,-0.399949655711,-0.399949655711,-0.415332334777,-0.415332334777,-0.430715013843,-0.430715013843,-0.430715013843,-0.446097692909,-0.446097692909,-0.461480371975,-0.461480371975,-0.461480371975,-0.476863051041,-0.476863051041,-0.476863051041,-0.492245730106,-0.492245730106,-0.492245730106,-0.507628409172,-0.507628409172,-0.523011088238,-0.523011088238,-0.523011088238,-0.538393767304,-0.538393767304,-0.538393767304,-0.55377644637,-0.55377644637,-0.55377644637,-0.569159125435,-0.569159125435,-0.584541804501,-0.584541804501,-0.584541804501,-0.599924483567,-0.599924483567,-0.615307162633,-0.615307162633,-0.630689841699,-0.630689841699,-0.630689841699,-0.646072520765,-0.646072520765,-0.646072520765,-0.66145519983,-0.66145519983,-0.66145519983,-0.676837878896,-0.676837878896,-0.676837878896,-0.692220557962,-0.692220557962,-0.692220557962,-0.707603237028,-0.707603237028,-0.722985916094,-0.722985916094,-0.722985916094,-0.73836859516,-0.73836859516,-0.73836859516,-0.753751274225,-0.753751274225,-0.753751274225,-0.769133953291,-0.769133953291,-0.769133953291,-0.784516632357,-0.784516632357,-0.784516632357,-0.799899311423,-0.799899311423,-0.799899311423,-0.815281990489,-0.815281990489,-0.830664669555,-0.830664669555,-0.830664669555,-0.84604734862,-0.84604734862,-0.861430027686,-0.861430027686,-0.861430027686,-0.876812706752,-0.876812706752,-0.876812706752,-0.892195385818,-0.892195385818,-0.892195385818,-0.907578064884,-0.907578064884,-0.907578064884,-0.922960743949,-0.922960743949,-0.922960743949,-0.938343423015,-0.938343423015,-0.938343423015,-0.938343423015,-0.953726102081,-0.953726102081,-0.953726102081,-0.969108781147,-0.969108781147,-0.984491460213,-0.984491460213,-0.984491460213
0.0,0.0,0.0,0.0,0.0,0.0,0.0,0.0,0.0,0.0,0.0,0.0,0.0,0.0,0.0,0.0,0.0,0.0,0.0,0.0,0.0,0.0,0.0,0.0,0.0,0.0,0.0,0.0,0.0,0.0,0.0,0.0,0.0,0.0,0.0,0.0,0.0,0.0,0.0,0.0,0.0,0.0,0.0,0.0,0.0,2.50737668773,2.4766113296,2.44584597147,2.41508061333,2.39969793427,2.3843152552,2.36893257614,2.36893257614,2.35354989707,2.33816721801,2.32278453894,2.30740185987,2.29201918081,2.27663650174,2.27663650174,2.26125382268,2.24587114361,2.23048846454,2.21510578548,2.19972310641,2.16895774828,2.15357506922,2.12280971108,2.10742703202,2.09204435295,2.07666167389,2.06127899482,2.04589631575,2.03051363669,2.01513095762,1.99974827856,1.98436559949,1.96898292043,1.96898292043,1.95360024136,1.95360024136,1.93821756229,1.92283488323,1.92283488323,1.90745220416,1.87668684603,1.86130416696,1.8459214879,1.83053880883,1.83053880883,1.81515612977,1.7997734507,1.78439077164,1.76900809257,1.7536254135,1.73824273444,1.73824273444,1.72286005537,1.70747737631,1.70747737631,1.69209469724,1.67671201817,1.64594666004,1.63056398098,1.61518130191,1.61518130191,1.59979862285,1.58441594378,1.56903326471,1.56903326471,1.55365058565,1.53826790658,1.52288522752,1.50750254845,1.50750254845,1.49211986938,1.47673719032,1.47673719032,1.46135451125,1.44597183219,1.43058915312,1.41520647406,1.39982379499,1.38444111592,1.38444111592,1.36905843686,1.35367575779,1.35367575779,1.35367575779,1.33829307873,1.32291039966,1.3075277206,1.29214504153,1.27676236246,1.27676236246,1.2613796834,1.2613796834,1.24599700433,1.24599700433,1.23061432527,1.2152316462,1.19984896713,1.18446628807,1.18446628807,1.169083609,1.15370092994,1.13831825087,1.12293557181,1.10755289274,1.09217021367,1.09217021367,1.07678753461,1.06140485554,1.06140485554,1.04602217648,1.04602217648,1.04602217648,1.03063949741,1.01525681834,1.01525681834,0.999874139279,0.984491460213,0.969108781147,0.969108781147,0.953726102081,0.938343423015,0.938343423015,0.922960743949,0.922960743949,0.907578064884,0.907578064884,0.892195385818,0.876812706752,0.876812706752,0.861430027686,0.84604734862,0.84604734862,0.830664669555,0.815281990489,0.815281990489,0.799899311423,0.799899311423,0.784516632357,0.769133953291,0.769133953291,0.753751274225,0.73836859516,0.73836859516,0.722985916094,0.707603237028,0.707603237028,0.692220557962,0.692220557962,0.676837878896,0.676837878896,0.66145519983,0.646072520765,0.646072520765,0.630689841699,0.630689841699,0.615307162633,0.599924483567,0.599924483567,0.599924483567,0.584541804501,0.584541804501,0.569159125435,0.569159125435,0.55377644637,0.538393767304,0.538393767304,0.523011088238,0.507628409172,0.507628409172,0.492245730106,0.492245730106,0.476863051041,0.476863051041,0.461480371975,0.461480371975,0.446097692909,0.446097692909,0.430715013843,0.430715013843,0.415332334777,0.415332334777,0.399949655711,0.384566976646,0.384566976646,0.36918429758,0.36918429758,0.353801618514,0.353801618514,0.338418939448,0.338418939448,0.323036260382,0.323036260382,0.307653581316,0.307653581316,0.292270902251,0.292270902251,0.276888223185,0.276888223185,0.261505544119,0.261505544119,0.246122865053,0.246122865053,0.230740185987,0.230740185987,0.215357506922,0.215357506922,0.199974827856,0.199974827856,0.18459214879,0.18459214879,0.169209469724,0.169209469724,0.153826790658,0.153826790658,0.138444111592,0.138444111592,0.123061432527,0.123061432527,0.107678753461,0.107678753461,0.0922960743949,0.0922960743949,0.0769133953291,0.0769133953291,0.0769133953291,0.0615307162633,0.0615307162633,0.0461480371975,0.0461480371975,0.0307653581316,0.0307653581316,0.0153826790658,0.0153826790658,0.0,0.0,-0.0153826790658,-0.0153826790658,-0.0307653581316,-0.0307653581316,-0.0307653581316,-0.0461480371975,-0.0461480371975,-0.0615307162633,-0.0615307162633,-0.0769133953291,-0.0769133953291,-0.0769133953291,-0.0922960743949,-0.0922960743949,-0.107678753461,-0.107678753461,-0.123061432527,-0.123061432527,-0.138444111592,-0.138444111592,-0.153826790658,-0.153826790658,-0.153826790658,-0.169209469724,-0.169209469724,-0.18459214879,-0.18459214879,-0.199974827856,-0.199974827856,-0.199974827856,-0.215357506922,-0.215357506922,-0.215357506922,-0.230740185987,-0.230740185987,-0.246122865053,-0.246122865053,-0.246122865053,-0.261505544119,-0.261505544119,-0.276888223185,-0.276888223185,-0.292270902251,-0.292270902251,-0.292270902251,-0.307653581316,-0.307653581316,-0.323036260382,-0.323036260382,-0.323036260382,-0.338418939448,-0.338418939448,-0.338418939448,-0.353801618514,-0.353801618514,-0.36918429758,-0.36918429758,-0.36918429758,-0.384566976646,-0.384566976646,-0.399949655711,-0.399949655711,-0.415332334777,-0.415332334777,-0.415332334777,-0.430715013843,-0.430715013843,-0.446097692909,-0.446097692909,-0.461480371975,-0.461480371975,-0.461480371975,-0.461480371975,-0.476863051041,-0.476863051041,-0.476863051041,-0.492245730106,-0.492245730106,-0.507628409172,-0.507628409172,-0.523011088238,-0.523011088238,-0.523011088238,-0.538393767304,-0.538393767304,-0.538393767304,-0.55377644637,-0.55377644637,-0.55377644637,-0.569159125435,-0.569159125435,-0.569159125435,-0.584541804501,-0.584541804501,-0.599924483567,-0.599924483567,-0.615307162633,-0.615307162633,-0.630689841699,-0.630689841699,-0.630689841699,-0.646072520765,-0.646072520765,-0.646072520765,-0.66145519983,-0.66145519983,-0.66145519983,-0.676837878896,-0.676837878896,-0.676837878896,-0.692220557962,-0.692220557962,-0.692220557962,-0.707603237028,-0.707603237028,-0.707603237028,-0.722985916094,-0.722985916094,-0.73836859516,-0.73836859516,-0.73836859516,-0.753751274225,-0.753751274225,-0.753751274225,-0.769133953291,-0.769133953291,-0.769133953291,-0.784516632357,-0.784516632357,-0.784516632357,-0.799899311423,-0.799899311423,-0.799899311423,-0.815281990489,-0.815281990489,-0.830664669555,-0.830664669555,-0.84604734862,-0.84604734862,-0.84604734862,-0.861430027686,-0.861430027686,-0.876812706752,-0.876812706752,-0.876812706752,-0.876812706752,-0.892195385818,-0.892195385818,-0.892195385818,-0.907578064884,-0.907578064884,-0.907578064884,-0.922960743949,-0.922960743949,-0.922960743949,-0.938343423015,-0.938343423015,-0.938343423015,-0.938343423015,-0.953726102081,-0.953726102081,-0.953726102081,-0.969108781147,-0.969108781147,-0.969108781147,-0.984491460213,-0.984491460213
0.0,0.0,0.0,0.0,0.0,0.0,0.0,0.0,0.0,0.0,0.0,0.0,0.0,0.0,0.0,0.0,0.0,0.0,0.0,0.0,0.0,0.0,0.0,0.0,0.0,0.0,0.0,0.0,0.0,0.0,0.0,0.0,0.0,0.0,0.0,0.0,0.0,0.0,2.70735151559,2.69196883652,0.0,0.0,0.0,0.0,2.58429008306,2.5227593668,2.49199400866,2.44584597147,2.41508061333,2.39969793427,2.3843152552,2.36893257614,2.36893257614,2.35354989707,2.33816721801,2.32278453894,2.30740185987,2.29201918081,2.29201918081,2.27663650174,2.26125382268,2.24587114361,2.23048846454,2.21510578548,2.18434042735,2.16895774828,2.15357506922,2.12280971108,2.10742703202,2.09204435295,2.07666167389,2.06127899482,2.04589631575,2.03051363669,2.01513095762,1.99974827856,1.98436559949,1.98436559949,1.96898292043,1.95360024136,1.95360024136,1.93821756229,1.92283488323,1.90745220416,1.8920695251,1.87668684603,1.86130416696,1.8459214879,1.8459214879,1.83053880883,1.81515612977,1.7997734507,1.7997734507,1.78439077164,1.7536254135,1.73824273444,1.73824273444,1.72286005537,1.70747737631,1.70747737631,1.69209469724,1.67671201817,1.66132933911,1.64594666004,1.63056398098,1.61518130191,1.59979862285,1.58441594378,1.58441594378,1.56903326471,1.55365058565,1.53826790658,1.52288522752,1.52288522752,1.50750254845,1.49211986938,1.49211986938,1.47673719032,1.46135451125,1.44597183219,1.43058915312,1.41520647406,1.39982379499,1.38444111592,1.38444111592,1.36905843686,1.36905843686,1.35367575779,1.35367575779,1.33829307873,1.32291039966,1.3075277206,1.29214504153,1.27676236246,1.27676236246,1.2613796834,1.2613796834,1.24599700433,1.24599700433,1.23061432527,1.2152316462,1.19984896713,1.19984896713,1.18446628807,1.169083609,1.15370092994,1.15370092994,1.13831825087,1.10755289274,1.09217021367,1.09217021367,1.07678753461,1.06140485554,1.06140485554,1.06140485554,1.04602217648,1.04602217648,1.03063949741,1.01525681834,1.01525681834,0.999874139279,0.984491460213,0.969108781147,0.969108781147,0.953726102081,0.938343423015,0.938343423015,0.922960743949,0.922960743949,0.907578064884,0.907578064884,0.892195385818,0.876812706752,0.876812706752,0.861430027686,0.861430027686,0.84604734862,0.830664669555,0.815281990489,0.815281990489,0.799899311423,0.799899311423,0.784516632357,0.784516632357,0.769133953291,0.753751274225,0.73836859516,0.73836859516,0.722985916094,0.707603237028,0.707603237028,0.692220557962,0.692220557962,0.676837878896,0.676837878896,0.66145519983,0.66145519983,0.646072520765,0.630689841699,0.630689841699,0.615307162633,0.615307162633,0.599924483567,0.599924483567,0.584541804501,0.584541804501,0.569159125435,0.569159125435,0.55377644637,0.55377644637,0.538393767304,0.523011088238,0.523011088238,0.507628409172,0.492245730106,0.492245730106,0.476863051041,0.476863051041,0.461480371975,0.461480371975,0.446097692909,0.446097692909,0.430715013843,0.430715013843,0.415332334777,0.415332334777,0.399949655711,0.384566976646,0.384566976646,0.36918429758,0.36918429758,0.353801618514,0.353801618514,0.338418939448,0.338418939448,0.323036260382,0.323036260382,0.307653581316,0.307653581316,0.292270902251,0.292270902251,0.276888223185,0.276888223185,0.261505544119,0.261505544119,0.246122865053,0.246122865053,0.246122865053,0.230740185987,0.215357506922,0.215357506922,0.199974827856,0.199974827856,0.18459214879,0.18459214879,0.169209469724,0.169209469724,0.153826790658,0.153826790658,0.138444111592,0.138444111592,0.123061432527,0.123061432527,0.107678753461,0.107678753461,0.0922960743949,0.0922960743949,0.0922960743949,0.0769133953291,0.0769133953291,0.0615307162633,0.0615307162633,0.0461480371975,0.0461480371975,0.0307653581316,0.0307653581316,0.0153826790658,0.0153826790658,0.0,0.0,-0.0153826790658,-0.0153826790658,-0.0153826790658,-0.0307653581316,-0.0307653581316,-0.0461480371975,-0.0461480371975,-0.0615307162633,-0.0615307162633,-0.0615307162633,-0.0769133953291,-0.0769133953291,-0.0922960743949,-0.0922960743949,-0.107678753461,-0.107678753461,-0.107678753461,-0.123061432527,-0.123061432527,-0.138444111592,-0.138444111592,-0.153826790658,-0.153826790658,-0.169209469724,-0.169209469724,-0.18459214879,-0.18459214879,-0.18459214879,-0.199974827856,-0.199974827856,-0.215357506922,-0.215357506922,-0.215357506922,-0.230740185987,-0.230740185987,-0.230740185987,-0.246122865053,-0.246122865053,-0.261505544119,-0.261505544119,-0.276888223185,-0.276888223185,-0.276888223185,-0.292270902251,-0.292270902251,-0.307653581316,-0.307653581316,-0.307653581316,-0.323036260382,-0.323036260382,-0.338418939448,-0.338418939448,-0.338418939448,-0.353801618514,-0.353801618514,-0.353801618514,-0.36918429758,-0.36918429758,-0.384566976646,-0.384566976646,-0.399949655711,-0.399949655711,-0.415332334777,-0.415332334777,-0.415332334777,-0.430715013843,-0.430715013843,-0.446097692909,-0.446097692909,-0.446097692909,-0.461480371975,-0.461480371975,-0.461480371975,-0.476863051041,-0.476863051041,-0.476863051041,-0.492245730106,-0.492245730106,-0.507628409172,-0.507628409172,-0.507628409172,-0.523011088238,-0.523011088238,-0.538393767304,-0.538393767304,-0.538393767304,-0.55377644637,-0.55377644637,-0.55377644637,-0.569159125435,-0.569159125435,-0.569159125435,-0.584541804501,-0.584541804501,-0.599924483567,-0.599924483567,-0.615307162633,-0.615307162633,-0.615307162633,-0.630689841699,-0.630689841699,-0.646072520765,-0.646072520765,-0.646072520765,-0.66145519983,-0.66145519983,-0.66145519983,-0.676837878896,-0.676837878896,-0.676837878896,-0.692220557962,-0.692220557962,-0.692220557962,-0.707603237028,-0.707603237028,-0.707603237028,-0.722985916094,-0.722985916094,-0.722985916094,-0.73836859516,-0.73836859516,-0.753751274225,-0.753751274225,-0.753751274225,-0.769133953291,-0.769133953291,-0.769133953291,-0.784516632357,-0.784516632357,-0.784516632357,-0.799899311423,-0.799899311423,-0.799899311423,-0.815281990489,-0.815281990489,-0.830664669555,-0.830664669555,-0.84604734862,-0.84604734862,-0.84604734862,-0.861430027686,-0.861430027686,-0.876812706752,-0.876812706752,-0.876812706752,-0.876812706752,-0.892195385818,-0.892195385818,-0.892195385818,-0.907578064884,-0.907578064884,-0.907578064884,-0.922960743949,-0.922960743949,-0.922960743949,-0.922960743949,-0.938343423015,-0.938343423015,-0.938343423015,-0.953726102081,-0.953726102081,-0.953726102081,-0.969108781147,-0.969108781147,-0.969108781147,-0.984491460213,-0.984491460213
0.0,0.0,0.0,0.0,0.0,0.0,0.0,0.0,0.0,0.0,0.0,0.0,0.0,0.0,0.0,0.0,0.0,0.0,0.0,0.0,0.0,0.0,0.0,0.0,0.0,0.0,0.0,0.0,0.0,0.0,0.0,0.0,0.0,0.0,0.0,0.0,0.0,2.70735151559,2.70735151559,2.69196883652,2.66120347839,0.0,0.0,0.0,2.58429008306,2.55352472493,2.49199400866,2.44584597147,2.41508061333,2.39969793427,2.3843152552,2.36893257614,2.36893257614,2.35354989707,2.33816721801,2.32278453894,2.30740185987,2.29201918081,2.29201918081,2.27663650174,2.26125382268,2.24587114361,2.23048846454,2.19972310641,2.18434042735,2.16895774828,2.13819239015,2.12280971108,2.10742703202,2.09204435295,2.07666167389,2.07666167389,2.06127899482,2.04589631575,2.03051363669,2.01513095762,1.99974827856,1.98436559949,1.96898292043,1.96898292043,1.95360024136,1.93821756229,1.93821756229,1.92283488323,1.8920695251,1.87668684603,1.86130416696,1.86130416696,1.8459214879,1.83053880883,1.81515612977,1.81515612977,1.7997734507,1.78439077164,1.76900809257,1.7536254135,1.73824273444,1.72286005537,1.70747737631,1.70747737631,1.69209469724,1.67671201817,1.66132933911,1.64594666004,1.63056398098,1.61518130191,1.59979862285,1.59979862285,1.58441594378,1.56903326471,1.55365058565,1.53826790658,1.53826790658,1.52288522752,1.50750254845,1.50750254845,1.49211986938,1.47673719032,1.46135451125,1.44597183219,1.43058915312,1.41520647406,1.39982379499,1.39982379499,1.38444111592,1.36905843686,1.36905843686,1.35367575779,1.35367575779,1.33829307873,1.32291039966,1.3075277206,1.29214504153,1.29214504153,1.27676236246,1.2613796834,1.2613796834,1.2613796834,1.24599700433,1.23061432527,1.2152316462,1.2152316462,1.19984896713,1.18446628807,1.169083609,1.169083609,1.15370092994,1.13831825087,1.10755289274,1.09217021367,1.09217021367,1.07678753461,1.07678753461,1.06140485554,1.06140485554,1.04602217648,1.04602217648,1.03063949741,1.01525681834,1.01525681834,0.999874139279,0.984491460213,0.969108781147,0.969108781147,0.953726102081,0.953726102081,0.938343423015,0.922960743949,0.922960743949,0.907578064884,0.907578064884,0.892195385818,0.892195385818,0.876812706752,0.861430027686,0.861430027686,0.84604734862,0.830664669555,0.830664669555,0.815281990489,0.799899311423,0.799899311423,0.784516632357,0.784516632357,0.769133953291,0.753751274225,0.753751274225,0.73836859516,0.722985916094,0.722985916094,0.707603237028,0.692220557962,0.692220557962,0.676837878896,0.676837878896,0.66145519983,0.66145519983,0.646072520765,0.630689841699,0.630689841699,0.615307162633,0.615307162633,0.599924483567,0.599924483567,0.584541804501,0.584541804501,0.584541804501,0.569159125435,0.55377644637,0.55377644637,0.538393767304,0.538393767304,0.523011088238,0.507628409172,0.507628409172,0.492245730106,0.476863051041,0.476863051041,0.461480371975,0.461480371975,0.446097692909,0.446097692909,0.430715013843,0.430715013843,0.415332334777,0.415332334777,0.399949655711,0.384566976646,0.384566976646,0.36918429758,0.36918429758,0.353801618514,0.353801618514,0.338418939448,0.338418939448,0.323036260382,0.323036260382,0.307653581316,0.307653581316,0.292270902251,0.292270902251,0.276888223185,0.276888223185,0.261505544119,0.261505544119,0.261505544119,0.246122865053,0.246122865053,0.230740185987,0.230740185987,0.215357506922,0.199974827856,0.199974827856,0.18459214879,0.18459214879,0.169209469724,0.169209469724,0.153826790658,0.153826790658,0.138444111592,0.138444111592,0.123061432527,0.123061432527,0.107678753461,0.107678753461,0.0922960743949,0.0922960743949,0.0922960743949,0.0769133953291,0.0769133953291,0.0615307162633,0.0615307162633,0.0461480371975,0.0461480371975,0.0307653581316,0.0307653581316,0.0153826790658,0.0153826790658,0.0,0.0,0.0,-0.0153826790658,-0.0153826790658,-0.0307653581316,-0.0307653581316,-0.0461480371975,-0.0461480371975,-0.0461480371975,-0.0615307162633,-0.0615307162633,-0.0769133953291,-0.0769133953291,-0.0922960743949,-0.0922960743949,-0.0922960743949,-0.107678753461,-0.107678753461,-0.123061432527,-0.123061432527,-0.138444111592,-0.138444111592,-0.153826790658,-0.153826790658,-0.169209469724,-0.169209469724,-0.18459214879,-0.18459214879,-0.18459214879,-0.199974827856,-0.199974827856,-0.199974827856,-0.215357506922,-0.215357506922,-0.230740185987,-0.230740185987,-0.230740185987,-0.246122865053,-0.246122865053,-0.261505544119,-0.261505544119,-0.276888223185,-0.276888223185,-0.276888223185,-0.292270902251,-0.292270902251,-0.307653581316,-0.307653581316,-0.307653581316,-0.323036260382,-0.323036260382,-0.338418939448,-0.338418939448,-0.338418939448,-0.353801618514,-0.353801618514,-0.353801618514,-0.36918429758,-0.36918429758,-0.384566976646,-0.384566976646,-0.399949655711,-0.399949655711,-0.399949655711,-0.415332334777,-0.415332334777,-0.430715013843,-0.430715013843,-0.446097692909,-0.446097692909,-0.446097692909,-0.461480371975,-0.461480371975,-0.461480371975,-0.476863051041,-0.476863051041,-0.476863051041,-0.492245730106,-0.492245730106,-0.507628409172,-0.507628409172,-0.507628409172,-0.523011088238,-0.523011088238,-0.523011088238,-0.538393767304,-0.538393767304,-0.538393767304,-0.55377644637,-0.55377644637,-0.569159125435,-0.569159125435,-0.569159125435,-0.584541804501,-0.584541804501,-0.599924483567,-0.599924483567,-0.615307162633,-0.615307162633,-0.615307162633,-0.630689841699,-0.630689841699,-0.630689841699,-0.646072520765,-0.646072520765,-0.646072520765,-0.66145519983,-0.66145519983,-0.676837878896,-0.676837878896,-0.676837878896,-0.692220557962,-0.692220557962,-0.692220557962,-0.707603237028,-0.707603237028,-0.707603237028,-0.722985916094,-0.722985916094,-0.722985916094,-0.73836859516,-0.73836859516,-0.73836859516,-0.753751274225,-0.753751274225,-0.769133953291,-0.769133953291,-0.769133953291,-0.784516632357,-0.784516632357,-0.784516632357,-0.799899311423,-0.799899311423,-0.799899311423,-0.815281990489,-0.815281990489,-0.830664669555,-0.830664669555,-0.84604734862,-0.84604734862,-0.84604734862,-0.861430027686,-0.861430027686,-0.861430027686,-0.876812706752,-0.876812706752,-0.876812706752,-0.892195385818,-0.892195385818,-0.892195385818,-0.907578064884,-0.907578064884,-0.907578064884,-0.922960743949,-0.922960743949,-0.922960743949,-0.938343423015,-0.938343423015,-0.938343423015,-0.938343423015,-0.938343423015,-0.953726102081,-0.953726102081,-0.969108781147,-0.969108781147,-0.969108781147,-0.984491460213,-0.984491460213
0.0,0.0,0.0,0.0,0.0,0.0,0.0,0.0,0.0,0.0,0.0,0.0,0.0,0.0,0.0,0.0,0.0,0.0,0.0,0.0,0.0,0.0,0.0,0.0,0.0,0.0,0.0,0.0,0.0,0.0,0.0,0.0,0.0,0.0,0.0,0.0,2.72273419465,2.70735151559,2.70735151559,2.69196883652,2.66120347839,0.0,0.0,0.0,2.59967276212,2.55352472493,2.49199400866,2.44584597147,2.41508061333,2.39969793427,2.3843152552,2.36893257614,2.35354989707,2.35354989707,2.33816721801,2.32278453894,2.30740185987,2.30740185987,2.29201918081,2.27663650174,2.27663650174,2.26125382268,2.23048846454,2.19972310641,2.16895774828,2.15357506922,2.13819239015,2.12280971108,2.10742703202,2.10742703202,2.09204435295,2.07666167389,2.06127899482,2.04589631575,2.03051363669,2.01513095762,1.99974827856,1.98436559949,1.98436559949,1.96898292043,1.95360024136,1.95360024136,1.93821756229,1.92283488323,1.90745220416,1.8920695251,1.87668684603,1.86130416696,1.8459214879,1.83053880883,1.83053880883,1.81515612977,1.7997734507,1.78439077164,1.76900809257,1.7536254135,1.73824273444,1.72286005537,1.70747737631,1.70747737631,1.69209469724,1.67671201817,1.66132933911,1.64594666004,1.63056398098,1.61518130191,1.61518130191,1.59979862285,1.58441594378,1.56903326471,1.56903326471,1.55365058565,1.53826790658,1.52288522752,1.50750254845,1.50750254845,1.49211986938,1.47673719032,1.46135451125,1.44597183219,1.43058915312,1.41520647406,1.41520647406,1.39982379499,1.38444111592,1.36905843686,1.36905843686,1.35367575779,1.35367575779,1.33829307873,1.33829307873,1.32291039966,1.3075277206,1.29214504153,1.27676236246,1.27676236246,1.2613796834,1.2613796834,1.24599700433,1.23061432527,1.23061432527,1.2152316462,1.19984896713,1.18446628807,1.18446628807,1.169083609,1.15370092994,1.13831825087,1.12293557181,1.10755289274,1.09217021367,1.07678753461,1.07678753461,1.06140485554,1.06140485554,1.04602217648,1.04602217648,1.03063949741,1.01525681834,1.01525681834,0.999874139279,0.984491460213,0.969108781147,0.969108781147,0.953726102081,0.953726102081,0.938343423015,0.938343423015,0.922960743949,0.922960743949,0.907578064884,0.892195385818,0.892195385818,0.876812706752,0.861430027686,0.861430027686,0.84604734862,0.830664669555,0.830664669555,0.815281990489,0.815281990489,0.799899311423,0.784516632357,0.784516632357,0.769133953291,0.753751274225,0.753751274225,0.73836859516,0.722985916094,0.722985916094,0.707603237028,0.707603237028,0.692220557962,0.692220557962,0.676837878896,0.676837878896,0.66145519983,0.646072520765,0.646072520765,0.630689841699,0.615307162633,0.615307162633,0.599924483567,0.599924483567,0.599924483567,0.584541804501,0.584541804501,0.569159125435,0.569159125435,0.55377644637,0.538393767304,0.538393767304,0.523011088238,0.507628409172,0.507628409172,0.492245730106,0.492245730106,0.476863051041,0.461480371975,0.461480371975,0.446097692909,0.446097692909,0.430715013843,0.430715013843,0.415332334777,0.415332334777,0.399949655711,0.399949655711,0.384566976646,0.36918429758,0.36918429758,0.353801618514,0.353801618514,0.353801618514,0.338418939448,0.323036260382,0.323036260382,0.307653581316,0.307653581316,0.292270902251,0.292270902251,0.276888223185,0.276888223185,0.276888223185,0.261505544119,0.261505544119,0.246122865053,0.246122865053,0.230740185987,0.230740185987,0.215357506922,0.199974827856,0.199974827856,0.18459214879,0.18459214879,0.169209469724,0.169209469724,0.153826790658,0.153826790658,0.138444111592,0.138444111592,0.123061432527,0.123061432527,0.107678753461,0.107678753461,0.0922960743949,0.0922960743949,0.0922960743949,0.0769133953291,0.0769133953291,0.0615307162633,0.0615307162633,0.0615307162633,0.0461480371975,0.0461480371975,0.0307653581316,0.0153826790658,0.0153826790658,0.0153826790658,0.0,0.0,-0.0153826790658,-0.0153826790658,-0.0307653581316,-0.0307653581316,-0.0307653581316,-0.0461480371975,-0.0461480371975,-0.0615307162633,-0.0615307162633,-0.0769133953291,-0.0769133953291,-0.0769133953291,-0.0922960743949,-0.0922960743949,-0.107678753461,-0.107678753461,-0.123061432527,-0.123061432527,-0.138444111592,-0.138444111592,-0.153826790658,-0.153826790658,-0.169209469724,-0.169209469724,-0.169209469724,-0.18459214879,-0.18459214879,-0.199974827856,-0.199974827856,-0.199974827856,-0.215357506922,-0.215357506922,-0.230740185987,-0.230740185987,-0.230740185987,-0.246122865053,-0.246122865053,-0.261505544119,-0.261505544119,-0.276888223185,-0.276888223185,-0.276888223185,-0.292270902251,-0.292270902251,-0.292270902251,-0.307653581316,-0.307653581316,-0.323036260382,-0.323036260382,-0.338418939448,-0.338418939448,-0.338418939448,-0.353801618514,-0.353801618514,-0.353801618514,-0.36918429758,-0.36918429758,-0.384566976646,-0.384566976646,-0.399949655711,-0.399949655711,-0.399949655711,-0.415332334777,-0.415332334777,-0.430715013843,-0.430715013843,-0.430715013843,-0.446097692909,-0.446097692909,-0.461480371975,-0.461480371975,-0.461480371975,-0.476863051041,-0.476863051041,-0.476863051041,-0.492245730106,-0.492245730106,-0.492245730106,-0.507628409172,-0.507628409172,-0.523011088238,-0.523011088238,-0.523011088238,-0.538393767304,-0.538393767304,-0.538393767304,-0.55377644637,-0.55377644637,-0.569159125435,-0.569159125435,-0.569159125435,-0.584541804501,-0.584541804501,-0.599924483567,-0.599924483567,-0.615307162633,-0.615307162633,-0.615307162633,-0.630689841699,-0.630689841699,-0.630689841699,-0.646072520765,-0.646072520765,-0.646072520765,-0.66145519983,-0.66145519983,-0.66145519983,-0.676837878896,-0.676837878896,-0.676837878896,-0.692220557962,-0.692220557962,-0.707603237028,-0.707603237028,-0.707603237028,-0.722985916094,-0.722985916094,-0.722985916094,-0.73836859516,-0.73836859516,-0.73836859516,-0.753751274225,-0.753751274225,-0.769133953291,-0.769133953291,-0.769133953291,-0.784516632357,-0.784516632357,-0.784516632357,-0.799899311423,-0.799899311423,-0.799899311423,-0.815281990489,-0.815281990489,-0.830664669555,-0.830664669555,-0.830664669555,-0.84604734862,-0.84604734862,-0.861430027686,-0.861430027686,-0.861430027686,-0.876812706752,-0.876812706752,-0.876812706752,-0.892195385818,-0.892195385818,-0.892195385818,-0.892195385818,-0.907578064884,-0.907578064884,-0.907578064884,-0.922960743949,-0.922960743949,-0.922960743949,-0.938343423015,-0.938343423015,-0.938343423015,-0.953726102081,-0.953726102081,-0.953726102081,-0.969108781147,-0.969108781147,-0.969108781147,-0.984491460213,-0.984491460213
0.0,0.0,0.0,0.0,0.0,0.0,0.0,0.0,0.0,0.0,0.0,0.0,0.0,0.0,0.0,0.0,0.0,0.0,0.0,0.0,0.0,0.0,0.0,0.0,0.0,0.0,0.0,0.0,0.0,0.0,0.0,0.0,0.0,0.0,0.0,0.0,0.0,2.70735151559,2.70735151559,2.69196883652,2.66120347839,0.0,0.0,0.0,2.58429008306,2.55352472493,2.49199400866,2.44584597147,2.41508061333,2.39969793427,2.3843152552,2.36893257614,2.35354989707,2.35354989707,2.33816721801,2.32278453894,2.32278453894,2.30740185987,2.29201918081,2.27663650174,2.27663650174,2.26125382268,2.23048846454,2.19972310641,2.16895774828,2.15357506922,2.13819239015,2.12280971108,2.12280971108,2.10742703202,2.09204435295,2.07666167389,2.07666167389,2.06127899482,2.03051363669,2.01513095762,1.99974827856,1.99974827856,1.98436559949,1.96898292043,1.96898292043,1.95360024136,1.93821756229,1.92283488323,1.90745220416,1.8920695251,1.87668684603,1.86130416696,1.8459214879,1.83053880883,1.83053880883,1.81515612977,1.7997734507,1.78439077164,1.76900809257,1.7536254135,1.73824273444,1.72286005537,1.72286005537,1.70747737631,1.69209469724,1.67671201817,1.66132933911,1.66132933911,1.64594666004,1.63056398098,1.61518130191,1.59979862285,1.58441594378,1.58441594378,1.56903326471,1.55365058565,1.53826790658,1.52288522752,1.52288522752,1.50750254845,1.49211986938,1.47673719032,1.46135451125,1.44597183219,1.43058915312,1.43058915312,1.41520647406,1.39982379499,1.38444111592,1.38444111592,1.36905843686,1.36905843686,1.35367575779,1.35367575779,1.33829307873,1.32291039966,1.3075277206,1.29214504153,1.27676236246,1.27676236246,1.2613796834,1.2613796834,1.24599700433,1.24599700433,1.23061432527,1.2152316462,1.19984896713,1.18446628807,1.18446628807,1.169083609,1.15370092994,1.13831825087,1.12293557181,1.10755289274,1.09217021367,1.07678753461,1.07678753461,1.06140485554,1.06140485554,1.06140485554,1.04602217648,1.03063949741,1.03063949741,1.01525681834,0.999874139279,0.984491460213,0.984491460213,0.969108781147,0.953726102081,0.953726102081,0.938343423015,0.938343423015,0.922960743949,0.922960743949,0.907578064884,0.892195385818,0.892195385818,0.876812706752,0.876812706752,0.861430027686,0.84604734862,0.84604734862,0.830664669555,0.815281990489,0.815281990489,0.799899311423,0.784516632357,0.784516632357,0.769133953291,0.753751274225,0.753751274225,0.73836859516,0.722985916094,0.722985916094,0.707603237028,0.707603237028,0.692220557962,0.692220557962,0.676837878896,0.676837878896,0.66145519983,0.646072520765,0.646072520765,0.630689841699,0.615307162633,0.615307162633,0.615307162633,0.599924483567,0.599924483567,0.584541804501,0.584541804501,0.569159125435,0.569159125435,0.55377644637,0.538393767304,0.538393767304,0.523011088238,0.523011088238,0.507628409172,0.492245730106,0.492245730106,0.476863051041,0.461480371975,0.461480371975,0.446097692909,0.446097692909,0.430715013843,0.430715013843,0.415332334777,0.415332334777,0.399949655711,0.384566976646,0.384566976646,0.36918429758,0.36918429758,0.353801618514,0.353801618514,0.353801618514,0.338418939448,0.338418939448,0.323036260382,0.323036260382,0.307653581316,0.307653581316,0.292270902251,0.292270902251,0.276888223185,0.276888223185,0.261505544119,0.261505544119,0.246122865053,0.246122865053,0.230740185987,0.230740185987,0.215357506922,0.199974827856,0.199974827856,0.18459214879,0.18459214879,0.169209469724,0.169209469724,0.153826790658,0.153826790658,0.138444111592,0.138444111592,0.138444111592,0.123061432527,0.123061432527,0.107678753461,0.107678753461,0.0922960743949,0.0922960743949,0.0769133953291,0.0769133953291,0.0615307162633,0.0615307162633,0.0615307162633,0.0461480371975,0.0461480371975,0.0307653581316,0.0307653581316,0.0153826790658,0.0153826790658,0.0,0.0,-0.0153826790658,-0.0153826790658,-0.0307653581316,-0.0307653581316,-0.0307653581316,-0.0461480371975,-0.0461480371975,-0.0615307162633,-0.0615307162633,-0.0615307162633,-0.0769133953291,-0.0769133953291,-0.0922960743949,-0.0922960743949,-0.107678753461,-0.107678753461,-0.123061432527,-0.123061432527,-0.138444111592,-0.138444111592,-0.153826790658,-0.153826790658,-0.169209469724,-0.169209469724,-0.169209469724,-0.18459214879,-0.18459214879,-0.199974827856,-0.199974827856,-0.199974827856,-0.215357506922,-0.215357506922,-0.215357506922,-0.230740185987,-0.230740185987,-0.246122865053,-0.246122865053,-0.261505544119,-0.261505544119,-0.276888223185,-0.276888223185,-0.276888223185,-0.292270902251,-0.292270902251,-0.292270902251,-0.307653581316,-0.307653581316,-0.323036260382,-0.323036260382,-0.323036260382,-0.338418939448,-0.338418939448,-0.353801618514,-0.353801618514,-0.353801618514,-0.36918429758,-0.36918429758,-0.384566976646,-0.384566976646,-0.384566976646,-0.399949655711,-0.399949655711,-0.415332334777,-0.415332334777,-0.415332334777,-0.430715013843,-0.430715013843,-0.446097692909,-0.446097692909,-0.461480371975,-0.461480371975,-0.461480371975,-0.476863051041,-0.476863051041,-0.476863051041,-0.492245730106,-0.492245730106,-0.492245730106,-0.507628409172,-0.507628409172,-0.507628409172,-0.523011088238,-0.523011088238,-0.538393767304,-0.538393767304,-0.538393767304,-0.55377644637,-0.55377644637,-0.55377644637,-0.569159125435,-0.569159125435,-0.584541804501,-0.584541804501,-0.599924483567,-0.599924483567,-0.599924483567,-0.615307162633,-0.615307162633,-0.630689841699,-0.630689841699,-0.630689841699,-0.646072520765,-0.646072520765,-0.646072520765,-0.66145519983,-0.66145519983,-0.66145519983,-0.676837878896,-0.676837878896,-0.676837878896,-0.692220557962,-0.692220557962,-0.692220557962,-0.707603237028,-0.707603237028,-0.707603237028,-0.722985916094,-0.722985916094,-0.73836859516,-0.73836859516,-0.73836859516,-0.753751274225,-0.753751274225,-0.769133953291,-0.769133953291,-0.769133953291,-0.784516632357,-0.784516632357,-0.784516632357,-0.799899311423,-0.799899311423,-0.799899311423,-0.815281990489,-0.815281990489,-0.830664669555,-0.830664669555,-0.830664669555,-0.84604734862,-0.84604734862,-0.84604734862,-0.861430027686,-0.861430027686,-0.876812706752,-0.876812706752,-0.876812706752,-0.892195385818,-0.892195385818,-0.892195385818,-0.892195385818,-0.907578064884,-0.907578064884,-0.907578064884,-0.922960743949,-0.922960743949,-0.922960743949,-0.938343423015,-0.938343423015,-0.938343423015,-0.953726102081,-0.953726102081,-0.953726102081,-0.969108781147,-0.969108781147,-0.969108781147,-0.984491460213,-0.984491460213
0.0,0.0,0.0,0.0,0.0,0.0,0.0,0.0,0.0,0.0,0.0,0.0,0.0,0.0,0.0,0.0,0.0,0.0,0.0,0.0,0.0,0.0,0.0,0.0,0.0,0.0,0.0,0.0,0.0,0.0,0.0,0.0,0.0,0.0,0.0,0.0,0.0,0.0,2.69196883652,2.69196883652,0.0,2.66120347839,0.0,2.64582079932,2.59967276212,2.5227593668,2.4766113296,2.44584597147,2.41508061333,2.39969793427,2.36893257614,2.36893257614,2.35354989707,2.35354989707,2.33816721801,2.33816721801,2.32278453894,2.30740185987,2.29201918081,2.29201918081,2.27663650174,2.26125382268,2.24587114361,2.21510578548,2.18434042735,2.15357506922,2.13819239015,2.13819239015,2.12280971108,2.10742703202,2.09204435295,2.09204435295,2.07666167389,2.06127899482,2.04589631575,2.03051363669,2.01513095762,1.99974827856,1.98436559949,1.98436559949,1.96898292043,1.95360024136,1.93821756229,1.92283488323,1.90745220416,1.8920695251,1.87668684603,1.86130416696,1.8459214879,1.83053880883,1.83053880883,1.81515612977,1.81515612977,1.7997734507,1.78439077164,1.76900809257,1.73824273444,1.72286005537,1.72286005537,1.70747737631,1.69209469724,1.69209469724,1.67671201817,1.66132933911,1.64594666004,1.63056398098,1.61518130191,1.59979862285,1.59979862285,1.58441594378,1.56903326471,1.55365058565,1.53826790658,1.53826790658,1.52288522752,1.50750254845,1.49211986938,1.47673719032,1.47673719032,1.46135451125,1.44597183219,1.43058915312,1.41520647406,1.39982379499,1.38444111592,1.38444111592,1.36905843686,1.36905843686,1.35367575779,1.35367575779,1.33829307873,1.32291039966,1.3075277206,1.29214504153,1.29214504153,1.27676236246,1.27676236246,1.2613796834,1.24599700433,1.24599700433,1.23061432527,1.2152316462,1.19984896713,1.18446628807,1.18446628807,1.169083609,1.15370092994,1.13831825087,1.12293557181,1.10755289274,1.09217021367,1.09217021367,1.07678753461,1.07678753461,1.06140485554,1.06140485554,1.04602217648,1.04602217648,1.03063949741,1.01525681834,0.999874139279,0.984491460213,0.984491460213,0.969108781147,0.953726102081,0.953726102081,0.953726102081,0.938343423015,0.922960743949,0.922960743949,0.907578064884,0.907578064884,0.892195385818,0.876812706752,0.876812706752,0.861430027686,0.84604734862,0.84604734862,0.830664669555,0.815281990489,0.815281990489,0.799899311423,0.799899311423,0.784516632357,0.769133953291,0.769133953291,0.753751274225,0.73836859516,0.722985916094,0.722985916094,0.707603237028,0.707603237028,0.692220557962,0.692220557962,0.676837878896,0.676837878896,0.66145519983,0.646072520765,0.646072520765,0.630689841699,0.615307162633,0.615307162633,0.615307162633,0.599924483567,0.599924483567,0.584541804501,0.584541804501,0.569159125435,0.569159125435,0.55377644637,0.55377644637,0.538393767304,0.523011088238,0.523011088238,0.507628409172,0.507628409172,0.492245730106,0.476863051041,0.476863051041,0.461480371975,0.461480371975,0.446097692909,0.430715013843,0.430715013843,0.415332334777,0.415332334777,0.399949655711,0.399949655711,0.384566976646,0.36918429758,0.36918429758,0.36918429758,0.353801618514,0.353801618514,0.338418939448,0.338418939448,0.323036260382,0.323036260382,0.307653581316,0.307653581316,0.292270902251,0.292270902251,0.276888223185,0.276888223185,0.261505544119,0.261505544119,0.246122865053,0.246122865053,0.230740185987,0.230740185987,0.215357506922,0.215357506922,0.199974827856,0.199974827856,0.18459214879,0.18459214879,0.169209469724,0.169209469724,0.153826790658,0.153826790658,0.138444111592,0.138444111592,0.123061432527,0.123061432527,0.107678753461,0.107678753461,0.0922960743949,0.0922960743949,0.0769133953291,0.0769133953291,0.0769133953291,0.0615307162633,0.0615307162633,0.0461480371975,0.0461480371975,0.0307653581316,0.0307653581316,0.0153826790658,0.0153826790658,0.0,0.0,-0.0153826790658,-0.0153826790658,-0.0153826790658,-0.0307653581316,-0.0307653581316,-0.0461480371975,-0.0461480371975,-0.0461480371975,-0.0615307162633,-0.0615307162633,-0.0769133953291,-0.0769133953291,-0.0922960743949,-0.0922960743949,-0.107678753461,-0.107678753461,-0.123061432527,-0.123061432527,-0.138444111592,-0.138444111592,-0.153826790658,-0.153826790658,-0.153826790658,-0.169209469724,-0.169209469724,-0.18459214879,-0.18459214879,-0.18459214879,-0.199974827856,-0.199974827856,-0.215357506922,-0.215357506922,-0.215357506922,-0.230740185987,-0.230740185987,-0.246122865053,-0.246122865053,-0.261505544119,-0.261505544119,-0.261505544119,-0.276888223185,-0.276888223185,-0.292270902251,-0.292270902251,-0.292270902251,-0.307653581316,-0.307653581316,-0.323036260382,-0.323036260382,-0.323036260382,-0.338418939448,-0.338418939448,-0.338418939448,-0.353801618514,-0.353801618514,-0.36918429758,-0.36918429758,-0.36918429758,-0.384566976646,-0.384566976646,-0.399949655711,-0.399949655711,-0.415332334777,-0.415332334777,-0.415332334777,-0.430715013843,-0.430715013843,-0.446097692909,-0.446097692909,-0.446097692909,-0.461480371975,-0.461480371975,-0.461480371975,-0.476863051041,-0.476863051041,-0.492245730106,-0.492245730106,-0.492245730106,-0.507628409172,-0.507628409172,-0.507628409172,-0.523011088238,-0.523011088238,-0.538393767304,-0.538393767304,-0.538393767304,-0.55377644637,-0.55377644637,-0.55377644637,-0.569159125435,-0.569159125435,-0.584541804501,-0.584541804501,-0.599924483567,-0.599924483567,-0.599924483567,-0.615307162633,-0.615307162633,-0.630689841699,-0.630689841699,-0.630689841699,-0.646072520765,-0.646072520765,-0.646072520765,-0.66145519983,-0.66145519983,-0.66145519983,-0.676837878896,-0.676837878896,-0.676837878896,-0.692220557962,-0.692220557962,-0.692220557962,-0.707603237028,-0.707603237028,-0.707603237028,-0.722985916094,-0.722985916094,-0.73836859516,-0.73836859516,-0.73836859516,-0.753751274225,-0.753751274225,-0.769133953291,-0.769133953291,-0.769133953291,-0.784516632357,-0.784516632357,-0.784516632357,-0.799899311423,-0.799899311423,-0.799899311423,-0.815281990489,-0.815281990489,-0.830664669555,-0.830664669555,-0.830664669555,-0.84604734862,-0.84604734862,-0.84604734862,-0.861430027686,-0.861430027686,-0.861430027686,-0.876812706752,-0.876812706752,-0.876812706752,-0.892195385818,-0.892195385818,-0.892195385818,-0.907578064884,-0.907578064884,-0.907578064884,-0.922960743949,-0.922960743949,-0.922960743949,-0.938343423015,-0.938343423015,-0.938343423015,-0.953726102081,-0.953726102081,-0.953726102081,-0.969108781147,-0.969108781147,-0.969108781147,-0.984491460213,-0.984491460213
0.0,0.0,0.0,0.0,0.0,0.0,0.0,0.0,0.0,0.0,0.0,0.0,0.0,0.0,0.0,0.0,0.0,0.0,0.0,0.0,0.0,0.0,0.0,0.0,0.0,0.0,0.0,0.0,0.0,0.0,0.0,0.0,0.0,0.0,0.0,0.0,0.0,0.0,0.0,0.0,0.0,0.0,2.66120347839,2.64582079932,2.59967276212,2.5227593668,2.4766113296,2.44584597147,2.41508061333,2.3843152552,2.36893257614,2.36893257614,2.35354989707,2.35354989707,2.33816721801,2.33816721801,2.32278453894,2.30740185987,2.30740185987,2.29201918081,2.27663650174,2.26125382268,2.24587114361,2.23048846454,2.19972310641,2.16895774828,2.15357506922,2.13819239015,2.12280971108,2.10742703202,2.10742703202,2.09204435295,2.07666167389,2.06127899482,2.04589631575,2.03051363669,2.01513095762,1.99974827856,1.98436559949,1.98436559949,1.96898292043,1.95360024136,1.95360024136,1.93821756229,1.92283488323,1.8920695251,1.87668684603,1.86130416696,1.8459214879,1.8459214879,1.83053880883,1.81515612977,1.81515612977,1.7997734507,1.78439077164,1.76900809257,1.7536254135,1.73824273444,1.72286005537,1.70747737631,1.70747737631,1.69209469724,1.67671201817,1.66132933911,1.64594666004,1.63056398098,1.61518130191,1.59979862285,1.59979862285,1.58441594378,1.56903326471,1.55365058565,1.53826790658,1.53826790658,1.52288522752,1.50750254845,1.50750254845,1.49211986938,1.47673719032,1.46135451125,1.44597183219,1.43058915312,1.41520647406,1.39982379499,1.38444111592,1.38444111592,1.36905843686,1.36905843686,1.36905843686,1.35367575779,1.33829307873,1.32291039966,1.3075277206,1.3075277206,1.29214504153,1.27676236246,1.27676236246,1.2613796834,1.2613796834,1.24599700433,1.23061432527,1.2152316462,1.19984896713,1.18446628807,1.18446628807,1.169083609,1.15370092994,1.13831825087,1.12293557181,1.10755289274,1.10755289274,1.09217021367,1.07678753461,1.07678753461,1.06140485554,1.06140485554,1.04602217648,1.04602217648,1.03063949741,1.01525681834,0.999874139279,0.999874139279,0.984491460213,0.969108781147,0.969108781147,0.953726102081,0.953726102081,0.938343423015,0.938343423015,0.922960743949,0.907578064884,0.907578064884,0.892195385818,0.876812706752,0.876812706752,0.861430027686,0.84604734862,0.84604734862,0.830664669555,0.830664669555,0.815281990489,0.799899311423,0.799899311423,0.784516632357,0.769133953291,0.769133953291,0.753751274225,0.73836859516,0.73836859516,0.722985916094,0.707603237028,0.707603237028,0.692220557962,0.692220557962,0.676837878896,0.676837878896,0.66145519983,0.646072520765,0.646072520765,0.630689841699,0.630689841699,0.615307162633,0.615307162633,0.599924483567,0.599924483567,0.584541804501,0.584541804501,0.569159125435,0.569159125435,0.55377644637,0.55377644637,0.538393767304,0.523011088238,0.523011088238,0.507628409172,0.507628409172,0.492245730106,0.492245730106,0.476863051041,0.461480371975,0.461480371975,0.446097692909,0.430715013843,0.430715013843,0.415332334777,0.415332334777,0.399949655711,0.399949655711,0.384566976646,0.36918429758,0.36918429758,0.36918429758,0.353801618514,0.353801618514,0.338418939448,0.338418939448,0.323036260382,0.323036260382,0.307653581316,0.307653581316,0.292270902251,0.292270902251,0.276888223185,0.276888223185,0.261505544119,0.261505544119,0.261505544119,0.246122865053,0.246122865053,0.230740185987,0.215357506922,0.215357506922,0.199974827856,0.199974827856,0.18459214879,0.18459214879,0.169209469724,0.169209469724,0.153826790658,0.153826790658,0.138444111592,0.138444111592,0.123061432527,0.123061432527,0.107678753461,0.107678753461,0.0922960743949,0.0922960743949,0.0769133953291,0.0769133953291,0.0769133953291,0.0615307162633,0.0615307162633,0.0461480371975,0.0461480371975,0.0307653581316,0.0307653581316,0.0153826790658,0.0153826790658,0.0,0.0,-0.0153826790658,-0.0153826790658,-0.0153826790658,-0.0307653581316,-0.0307653581316,-0.0461480371975,-0.0461480371975,-0.0461480371975,-0.0615307162633,-0.0615307162633,-0.0769133953291,-0.0769133953291,-0.0922960743949,-0.0922960743949,-0.107678753461,-0.107678753461,-0.123061432527,-0.123061432527,-0.138444111592,-0.138444111592,-0.138444111592,-0.153826790658,-0.153826790658,-0.169209469724,-0.169209469724,-0.18459214879,-0.18459214879,-0.18459214879,-0.199974827856,-0.199974827856,-0.215357506922,-0.215357506922,-0.215357506922,-0.230740185987,-0.230740185987,-0.246122865053,-0.246122865053,-0.261505544119,-0.261505544119,-0.261505544119,-0.276888223185,-0.276888223185,-0.276888223185,-0.292270902251,-0.292270902251,-0.307653581316,-0.307653581316,-0.307653581316,-0.323036260382,-0.323036260382,-0.338418939448,-0.338418939448,-0.338418939448,-0.353801618514,-0.353801618514,-0.36918429758,-0.36918429758,-0.36918429758,-0.384566976646,-0.384566976646,-0.399949655711,-0.399949655711,-0.399949655711,-0.415332334777,-0.415332334777,-0.430715013843,-0.430715013843,-0.446097692909,-0.446097692909,-0.446097692909,-0.461480371975,-0.461480371975,-0.461480371975,-0.476863051041,-0.476863051041,-0.476863051041,-0.492245730106,-0.492245730106,-0.507628409172,-0.507628409172,-0.507628409172,-0.523011088238,-0.523011088238,-0.523011088238,-0.538393767304,-0.538393767304,-0.55377644637,-0.55377644637,-0.55377644637,-0.569159125435,-0.569159125435,-0.584541804501,-0.584541804501,-0.599924483567,-0.599924483567,-0.599924483567,-0.615307162633,-0.615307162633,-0.630689841699,-0.630689841699,-0.630689841699,-0.646072520765,-0.646072520765,-0.646072520765,-0.66145519983,-0.66145519983,-0.66145519983,-0.676837878896,-0.676837878896,-0.676837878896,-0.692220557962,-0.692220557962,-0.692220557962,-0.707603237028,-0.707603237028,-0.707603237028,-0.722985916094,-0.722985916094,-0.73836859516,-0.73836859516,-0.73836859516,-0.753751274225,-0.753751274225,-0.769133953291,-0.769133953291,-0.769133953291,-0.784516632357,-0.784516632357,-0.784516632357,-0.799899311423,-0.799899311423,-0.799899311423,-0.815281990489,-0.815281990489,-0.815281990489,-0.830664669555,-0.830664669555,-0.830664669555,-0.84604734862,-0.84604734862,-0.861430027686,-0.861430027686,-0.861430027686,-0.876812706752,-0.876812706752,-0.876812706752,-0.892195385818,-0.892195385818,-0.892195385818,-0.907578064884,-0.907578064884,-0.907578064884,-0.922960743949,-0.922960743949,-0.922960743949,-0.938343423015,-0.938343423015,-0.938343423015,-0.953726102081,-0.953726102081,-0.953726102081,-0.969108781147,-0.969108781147,-0.969108781147,-0.984491460213,-0.984491460213
0.0,0.0,0.0,0.0,0.0,0.0,0.0,0.0,0.0,0.0,0.0,0.0,0.0,0.0,0.0,0.0,0.0,0.0,0.0,0.0,0.0,0.0,0.0,0.0,0.0,0.0,0.0,0.0,0.0,0.0,0.0,0.0,0.0,0.0,0.0,0.0,0.0,0.0,0.0,0.0,0.0,0.0,2.67658615745,2.66120347839,2.59967276212,2.5227593668,2.46122865053,2.4304632924,2.39969793427,2.3843152552,2.36893257614,2.36893257614,2.35354989707,2.35354989707,2.35354989707,2.33816721801,2.32278453894,2.32278453894,2.30740185987,2.29201918081,2.27663650174,2.27663650174,2.26125382268,2.24587114361,2.21510578548,2.18434042735,2.16895774828,2.13819239015,2.12280971108,2.10742703202,2.10742703202,2.09204435295,2.07666167389,2.06127899482,2.04589631575,2.03051363669,2.01513095762,1.99974827856,1.98436559949,1.98436559949,1.96898292043,1.96898292043,1.95360024136,1.93821756229,1.92283488323,1.8920695251,1.87668684603,1.86130416696,1.8459214879,1.8459214879,1.83053880883,1.83053880883,1.81515612977,1.7997734507,1.78439077164,1.76900809257,1.7536254135,1.73824273444,1.72286005537,1.70747737631,1.70747737631,1.69209469724,1.67671201817,1.66132933911,1.64594666004,1.63056398098,1.61518130191,1.59979862285,1.59979862285,1.58441594378,1.56903326471,1.55365058565,1.55365058565,1.53826790658,1.52288522752,1.52288522752,1.50750254845,1.49211986938,1.47673719032,1.46135451125,1.44597183219,1.43058915312,1.41520647406,1.39982379499,1.38444111592,1.38444111592,1.38444111592,1.36905843686,1.36905843686,1.35367575779,1.33829307873,1.33829307873,1.32291039966,1.3075277206,1.29214504153,1.27676236246,1.27676236246,1.2613796834,1.2613796834,1.24599700433,1.23061432527,1.2152316462,1.19984896713,1.18446628807,1.18446628807,1.169083609,1.15370092994,1.15370092994,1.13831825087,1.12293557181,1.10755289274,1.09217021367,1.09217021367,1.07678753461,1.07678753461,1.06140485554,1.06140485554,1.04602217648,1.03063949741,1.03063949741,1.01525681834,0.999874139279,0.984491460213,0.969108781147,0.969108781147,0.953726102081,0.953726102081,0.938343423015,0.938343423015,0.922960743949,0.907578064884,0.907578064884,0.892195385818,0.876812706752,0.876812706752,0.861430027686,0.84604734862,0.84604734862,0.830664669555,0.830664669555,0.815281990489,0.815281990489,0.799899311423,0.784516632357,0.784516632357,0.769133953291,0.753751274225,0.73836859516,0.73836859516,0.722985916094,0.707603237028,0.707603237028,0.707603237028,0.692220557962,0.676837878896,0.676837878896,0.66145519983,0.646072520765,0.646072520765,0.630689841699,0.630689841699,0.615307162633,0.615307162633,0.599924483567,0.599924483567,0.584541804501,0.584541804501,0.569159125435,0.569159125435,0.55377644637,0.55377644637,0.538393767304,0.538393767304,0.523011088238,0.507628409172,0.507628409172,0.492245730106,0.492245730106,0.476863051041,0.461480371975,0.461480371975,0.446097692909,0.446097692909,0.430715013843,0.430715013843,0.415332334777,0.399949655711,0.399949655711,0.384566976646,0.384566976646,0.36918429758,0.36918429758,0.353801618514,0.353801618514,0.353801618514,0.338418939448,0.338418939448,0.323036260382,0.323036260382,0.307653581316,0.292270902251,0.292270902251,0.276888223185,0.276888223185,0.276888223185,0.261505544119,0.261505544119,0.246122865053,0.246122865053,0.230740185987,0.230740185987,0.215357506922,0.215357506922,0.199974827856,0.18459214879,0.18459214879,0.169209469724,0.169209469724,0.153826790658,0.153826790658,0.138444111592,0.138444111592,0.138444111592,0.123061432527,0.107678753461,0.107678753461,0.0922960743949,0.0922960743949,0.0769133953291,0.0769133953291,0.0769133953291,0.0615307162633,0.0615307162633,0.0461480371975,0.0461480371975,0.0307653581316,0.0307653581316,0.0153826790658,0.0153826790658,0.0,0.0,-0.0153826790658,-0.0153826790658,-0.0153826790658,-0.0307653581316,-0.0307653581316,-0.0461480371975,-0.0461480371975,-0.0461480371975,-0.0615307162633,-0.0615307162633,-0.0769133953291,-0.0769133953291,-0.0922960743949,-0.0922960743949,-0.107678753461,-0.107678753461,-0.123061432527,-0.123061432527,-0.138444111592,-0.138444111592,-0.138444111592,-0.153826790658,-0.153826790658,-0.169209469724,-0.169209469724,-0.169209469724,-0.18459214879,-0.18459214879,-0.199974827856,-0.199974827856,-0.199974827856,-0.215357506922,-0.215357506922,-0.230740185987,-0.230740185987,-0.246122865053,-0.246122865053,-0.261505544119,-0.261505544119,-0.261505544119,-0.276888223185,-0.276888223185,-0.276888223185,-0.292270902251,-0.292270902251,-0.307653581316,-0.307653581316,-0.307653581316,-0.323036260382,-0.323036260382,-0.338418939448,-0.338418939448,-0.338418939448,-0.353801618514,-0.353801618514,-0.353801618514,-0.36918429758,-0.36918429758,-0.384566976646,-0.384566976646,-0.399949655711,-0.399949655711,-0.399949655711,-0.415332334777,-0.415332334777,-0.430715013843,-0.430715013843,-0.430715013843,-0.446097692909,-0.446097692909,-0.461480371975,-0.461480371975,-0.461480371975,-0.476863051041,-0.476863051041,-0.476863051041,-0.492245730106,-0.492245730106,-0.507628409172,-0.507628409172,-0.507628409172,-0.523011088238,-0.523011088238,-0.523011088238,-0.538393767304,-0.538393767304,-0.55377644637,-0.55377644637,-0.55377644637,-0.569159125435,-0.569159125435,-0.584541804501,-0.584541804501,-0.584541804501,-0.599924483567,-0.599924483567,-0.615307162633,-0.615307162633,-0.630689841699,-0.630689841699,-0.630689841699,-0.646072520765,-0.646072520765,-0.646072520765,-0.66145519983,-0.66145519983,-0.66145519983,-0.676837878896,-0.676837878896,-0.676837878896,-0.692220557962,-0.692220557962,-0.692220557962,-0.707603237028,-0.707603237028,-0.707603237028,-0.722985916094,-0.722985916094,-0.73836859516,-0.73836859516,-0.73836859516,-0.753751274225,-0.753751274225,-0.753751274225,-0.769133953291,-0.769133953291,-0.769133953291,-0.784516632357,-0.784516632357,-0.799899311423,-0.799899311423,-0.799899311423,-0.815281990489,-0.815281990489,-0.815281990489,-0.830664669555,-0.830664669555,-0.830664669555,-0.84604734862,-0.84604734862,-0.861430027686,-0.861430027686,-0.861430027686,-0.876812706752,-0.876812706752,-0.876812706752,-0.892195385818,-0.892195385818,-0.892195385818,-0.907578064884,-0.907578064884,-0.907578064884,-0.922960743949,-0.922960743949,-0.922960743949,-0.922960743949,-0.938343423015,-0.938343423015,-0.938343423015,-0.953726102081,-0.953726102081,-0.953726102081,-0.969108781147,-0.969108781147,-0.984491460213,-0.984491460213
0.0,0.0,0.0,0.0,0.0,0.0,0.0,0.0,0.0,0.0,0.0,0.0,0.0,0.0,0.0,0.0,0.0,0.0,0.0,0.0,0.0,0.0,0.0,0.0,0.0,0.0,0.0,0.0,0.0,0.0,0.0,0.0,0.0,0.0,0.0,0.0,0.0,0.0,0.0,0.0,0.0,0.0,0.0,2.67658615745,2.59967276212,2.5227593668,2.46122865053,2.4304632924,2.39969793427,2.3843152552,2.36893257614,2.36893257614,2.35354989707,2.35354989707,2.35354989707,2.33816721801,2.33816721801,2.32278453894,2.30740185987,2.29201918081,2.27663650174,2.27663650174,2.26125382268,2.24587114361,2.23048846454,2.19972310641,2.16895774828,2.15357506922,2.13819239015,2.12280971108,2.10742703202,2.09204435295,2.09204435295,2.07666167389,2.04589631575,2.03051363669,2.01513095762,1.99974827856,1.99974827856,1.98436559949,1.96898292043,1.96898292043,1.95360024136,1.93821756229,1.92283488323,1.8920695251,1.87668684603,1.86130416696,1.8459214879,1.8459214879,1.83053880883,1.83053880883,1.81515612977,1.7997734507,1.78439077164,1.76900809257,1.7536254135,1.73824273444,1.72286005537,1.72286005537,1.70747737631,1.69209469724,1.67671201817,1.66132933911,1.64594666004,1.63056398098,1.61518130191,1.61518130191,1.59979862285,1.58441594378,1.56903326471,1.55365058565,1.55365058565,1.53826790658,1.52288522752,1.52288522752,1.50750254845,1.49211986938,1.49211986938,1.47673719032,1.44597183219,1.43058915312,1.41520647406,1.39982379499,1.39982379499,1.38444111592,1.38444111592,1.36905843686,1.36905843686,1.35367575779,1.33829307873,1.33829307873,1.32291039966,1.3075277206,1.29214504153,1.29214504153,1.27676236246,1.2613796834,1.2613796834,1.24599700433,1.23061432527,1.2152316462,1.19984896713,1.19984896713,1.18446628807,1.169083609,1.169083609,1.15370092994,1.13831825087,1.12293557181,1.10755289274,1.10755289274,1.09217021367,1.07678753461,1.07678753461,1.06140485554,1.06140485554,1.04602217648,1.04602217648,1.03063949741,1.01525681834,0.999874139279,0.984491460213,0.984491460213,0.969108781147,0.969108781147,0.953726102081,0.938343423015,0.938343423015,0.922960743949,0.922960743949,0.907578064884,0.892195385818,0.892195385818,0.876812706752,0.861430027686,0.84604734862,0.84604734862,0.830664669555,0.830664669555,0.815281990489,0.815281990489,0.799899311423,0.784516632357,0.784516632357,0.769133953291,0.753751274225,0.73836859516,0.73836859516,0.722985916094,0.722985916094,0.707603237028,0.707603237028,0.692220557962,0.692220557962,0.676837878896,0.66145519983,0.646072520765,0.646072520765,0.630689841699,0.630689841699,0.615307162633,0.615307162633,0.599924483567,0.599924483567,0.599924483567,0.584541804501,0.584541804501,0.569159125435,0.55377644637,0.55377644637,0.538393767304,0.538393767304,0.523011088238,0.523011088238,0.507628409172,0.492245730106,0.492245730106,0.476863051041,0.476863051041,0.461480371975,0.446097692909,0.446097692909,0.430715013843,0.430715013843,0.415332334777,0.415332334777,0.399949655711,0.384566976646,0.384566976646,0.36918429758,0.36918429758,0.353801618514,0.353801618514,0.353801618514,0.338418939448,0.338418939448,0.323036260382,0.323036260382,0.307653581316,0.307653581316,0.292270902251,0.292270902251,0.276888223185,0.276888223185,0.261505544119,0.261505544119,0.246122865053,0.246122865053,0.230740185987,0.230740185987,0.215357506922,0.215357506922,0.199974827856,0.199974827856,0.18459214879,0.169209469724,0.169209469724,0.153826790658,0.153826790658,0.138444111592,0.138444111592,0.138444111592,0.123061432527,0.123061432527,0.107678753461,0.0922960743949,0.0922960743949,0.0922960743949,0.0769133953291,0.0769133953291,0.0615307162633,0.0615307162633,0.0615307162633,0.0461480371975,0.0461480371975,0.0307653581316,0.0307653581316,0.0153826790658,0.0,0.0,0.0,-0.0153826790658,-0.0153826790658,-0.0307653581316,-0.0307653581316,-0.0461480371975,-0.0461480371975,-0.0461480371975,-0.0615307162633,-0.0615307162633,-0.0769133953291,-0.0769133953291,-0.0922960743949,-0.0922960743949,-0.0922960743949,-0.107678753461,-0.123061432527,-0.123061432527,-0.123061432527,-0.138444111592,-0.138444111592,-0.153826790658,-0.153826790658,-0.153826790658,-0.169209469724,-0.169209469724,-0.18459214879,-0.18459214879,-0.199974827856,-0.199974827856,-0.199974827856,-0.215357506922,-0.215357506922,-0.230740185987,-0.230740185987,-0.246122865053,-0.246122865053,-0.246122865053,-0.261505544119,-0.261505544119,-0.276888223185,-0.276888223185,-0.276888223185,-0.292270902251,-0.292270902251,-0.292270902251,-0.307653581316,-0.307653581316,-0.323036260382,-0.323036260382,-0.338418939448,-0.338418939448,-0.338418939448,-0.353801618514,-0.353801618514,-0.353801618514,-0.36918429758,-0.36918429758,-0.384566976646,-0.384566976646,-0.399949655711,-0.399949655711,-0.399949655711,-0.415332334777,-0.415332334777,-0.430715013843,-0.430715013843,-0.430715013843,-0.446097692909,-0.446097692909,-0.461480371975,-0.461480371975,-0.461480371975,-0.476863051041,-0.476863051041,-0.476863051041,-0.492245730106,-0.492245730106,-0.507628409172,-0.507628409172,-0.507628409172,-0.523011088238,-0.523011088238,-0.523011088238,-0.538393767304,-0.538393767304,-0.55377644637,-0.55377644637,-0.55377644637,-0.569159125435,-0.569159125435,-0.584541804501,-0.584541804501,-0.584541804501,-0.599924483567,-0.599924483567,-0.615307162633,-0.615307162633,-0.615307162633,-0.630689841699,-0.630689841699,-0.646072520765,-0.646072520765,-0.646072520765,-0.66145519983,-0.66145519983,-0.66145519983,-0.676837878896,-0.676837878896,-0.676837878896,-0.692220557962,-0.692220557962,-0.692220557962,-0.707603237028,-0.707603237028,-0.707603237028,-0.722985916094,-0.722985916094,-0.73836859516,-0.73836859516,-0.73836859516,-0.753751274225,-0.753751274225,-0.753751274225,-0.769133953291,-0.769133953291,-0.769133953291,-0.784516632357,-0.784516632357,-0.784516632357,-0.799899311423,-0.799899311423,-0.815281990489,-0.815281990489,-0.815281990489,-0.830664669555,-0.830664669555,-0.830664669555,-0.84604734862,-0.84604734862,-0.84604734862,-0.861430027686,-0.861430027686,-0.876812706752,-0.876812706752,-0.876812706752,-0.876812706752,-0.892195385818,-0.892195385818,-0.892195385818,-0.907578064884,-0.907578064884,-0.907578064884,-0.922960743949,-0.922960743949,-0.922960743949,-0.938343423015,-0.938343423015,-0.938343423015,-0.953726102081,-0.953726102081,-0.953726102081,-0.969108781147,-0.969108781147,-0.984491460213,-0.984491460213
0.0,0.0,0.0,0.0,0.0,0.0,0.0,0.0,0.0,0.0,0.0,0.0,0.0,0.0,0.0,0.0,0.0,0.0,0.0,0.0,0.0,0.0,0.0,0.0,0.0,0.0,0.0,0.0,0.0,0.0,0.0,0.0,0.0,0.0,0.0,0.0,0.0,0.0,0.0,0.0,0.0,0.0,0.0,0.0,2.59967276212,2.5227593668,2.46122865053,2.4304632924,2.39969793427,2.3843152552,2.36893257614,2.36893257614,2.35354989707,2.35354989707,2.35354989707,2.35354989707,2.33816721801,2.32278453894,2.30740185987,2.29201918081,2.29201918081,2.27663650174,2.27663650174,2.26125382268,2.24587114361,2.21510578548,2.18434042735,2.15357506922,2.13819239015,2.12280971108,2.10742703202,2.10742703202,2.09204435295,2.07666167389,2.06127899482,2.04589631575,2.03051363669,2.01513095762,1.99974827856,1.98436559949,1.98436559949,1.96898292043,1.95360024136,1.93821756229,1.92283488323,1.90745220416,1.87668684603,1.86130416696,1.8459214879,1.8459214879,1.83053880883,1.83053880883,1.81515612977,1.81515612977,1.7997734507,1.76900809257,1.7536254135,1.73824273444,1.73824273444,1.72286005537,1.70747737631,1.69209469724,1.67671201817,1.66132933911,1.64594666004,1.63056398098,1.61518130191,1.61518130191,1.59979862285,1.58441594378,1.56903326471,1.56903326471,1.55365058565,1.53826790658,1.53826790658,1.52288522752,1.50750254845,1.50750254845,1.49211986938,1.47673719032,1.46135451125,1.43058915312,1.41520647406,1.41520647406,1.39982379499,1.38444111592,1.38444111592,1.36905843686,1.36905843686,1.35367575779,1.35367575779,1.33829307873,1.32291039966,1.3075277206,1.29214504153,1.29214504153,1.27676236246,1.27676236246,1.2613796834,1.24599700433,1.23061432527,1.2152316462,1.2152316462,1.19984896713,1.18446628807,1.169083609,1.169083609,1.15370092994,1.13831825087,1.12293557181,1.10755289274,1.10755289274,1.09217021367,1.09217021367,1.07678753461,1.06140485554,1.06140485554,1.04602217648,1.04602217648,1.03063949741,1.01525681834,0.999874139279,0.999874139279,0.984491460213,0.969108781147,0.969108781147,0.953726102081,0.953726102081,0.938343423015,0.922960743949,0.922960743949,0.907578064884,0.892195385818,0.892195385818,0.876812706752,0.861430027686,0.861430027686,0.84604734862,0.830664669555,0.830664669555,0.815281990489,0.815281990489,0.799899311423,0.784516632357,0.784516632357,0.769133953291,0.753751274225,0.73836859516,0.73836859516,0.722985916094,0.722985916094,0.707603237028,0.707603237028,0.692220557962,0.692220557962,0.676837878896,0.66145519983,0.66145519983,0.646072520765,0.630689841699,0.630689841699,0.615307162633,0.615307162633,0.599924483567,0.599924483567,0.599924483567,0.584541804501,0.584541804501,0.569159125435,0.569159125435,0.55377644637,0.538393767304,0.538393767304,0.523011088238,0.523011088238,0.507628409172,0.507628409172,0.492245730106,0.476863051041,0.476863051041,0.461480371975,0.446097692909,0.446097692909,0.430715013843,0.430715013843,0.415332334777,0.415332334777,0.399949655711,0.399949655711,0.384566976646,0.36918429758,0.36918429758,0.36918429758,0.353801618514,0.353801618514,0.338418939448,0.338418939448,0.323036260382,0.323036260382,0.307653581316,0.307653581316,0.292270902251,0.292270902251,0.276888223185,0.276888223185,0.261505544119,0.261505544119,0.246122865053,0.246122865053,0.230740185987,0.230740185987,0.215357506922,0.215357506922,0.199974827856,0.199974827856,0.18459214879,0.18459214879,0.169209469724,0.153826790658,0.153826790658,0.153826790658,0.138444111592,0.138444111592,0.123061432527,0.123061432527,0.107678753461,0.107678753461,0.0922960743949,0.0922960743949,0.0769133953291,0.0769133953291,0.0769133953291,0.0615307162633,0.0615307162633,0.0461480371975,0.0461480371975,0.0307653581316,0.0307653581316,0.0153826790658,0.0153826790658,0.0,0.0,-0.0153826790658,-0.0153826790658,-0.0307653581316,-0.0307653581316,-0.0307653581316,-0.0461480371975,-0.0461480371975,-0.0615307162633,-0.0615307162633,-0.0769133953291,-0.0769133953291,-0.0922960743949,-0.0922960743949,-0.0922960743949,-0.107678753461,-0.107678753461,-0.123061432527,-0.123061432527,-0.138444111592,-0.138444111592,-0.153826790658,-0.153826790658,-0.153826790658,-0.169209469724,-0.169209469724,-0.18459214879,-0.18459214879,-0.18459214879,-0.199974827856,-0.199974827856,-0.215357506922,-0.215357506922,-0.215357506922,-0.230740185987,-0.230740185987,-0.246122865053,-0.246122865053,-0.261505544119,-0.261505544119,-0.276888223185,-0.276888223185,-0.276888223185,-0.292270902251,-0.292270902251,-0.292270902251,-0.307653581316,-0.307653581316,-0.323036260382,-0.323036260382,-0.323036260382,-0.338418939448,-0.338418939448,-0.353801618514,-0.353801618514,-0.353801618514,-0.36918429758,-0.36918429758,-0.384566976646,-0.384566976646,-0.399949655711,-0.399949655711,-0.399949655711,-0.415332334777,-0.415332334777,-0.415332334777,-0.430715013843,-0.430715013843,-0.446097692909,-0.446097692909,-0.446097692909,-0.461480371975,-0.461480371975,-0.476863051041,-0.476863051041,-0.476863051041,-0.492245730106,-0.492245730106,-0.492245730106,-0.507628409172,-0.507628409172,-0.523011088238,-0.523011088238,-0.523011088238,-0.538393767304,-0.538393767304,-0.538393767304,-0.55377644637,-0.55377644637,-0.569159125435,-0.569159125435,-0.569159125435,-0.584541804501,-0.584541804501,-0.599924483567,-0.599924483567,-0.615307162633,-0.615307162633,-0.615307162633,-0.630689841699,-0.630689841699,-0.646072520765,-0.646072520765,-0.646072520765,-0.66145519983,-0.66145519983,-0.66145519983,-0.676837878896,-0.676837878896,-0.676837878896,-0.692220557962,-0.692220557962,-0.692220557962,-0.707603237028,-0.707603237028,-0.707603237028,-0.722985916094,-0.722985916094,-0.73836859516,-0.73836859516,-0.73836859516,-0.753751274225,-0.753751274225,-0.753751274225,-0.769133953291,-0.769133953291,-0.769133953291,-0.784516632357,-0.784516632357,-0.784516632357,-0.799899311423,-0.799899311423,-0.815281990489,-0.815281990489,-0.815281990489,-0.830664669555,-0.830664669555,-0.830664669555,-0.84604734862,-0.84604734862,-0.84604734862,-0.861430027686,-0.861430027686,-0.861430027686,-0.876812706752,-0.876812706752,-0.876812706752,-0.892195385818,-0.892195385818,-0.892195385818,-0.907578064884,-0.907578064884,-0.907578064884,-0.922960743949,-0.922960743949,-0.922960743949,-0.938343423015,-0.938343423015,-0.938343423015,-0.953726102081,-0.953726102081,-0.953726102081,-0.969108781147,-0.969108781147,-0.969108781147,-0.984491460213
0.0,0.0,0.0,0.0,0.0,0.0,0.0,0.0,0.0,0.0,0.0,0.0,0.0,0.0,0.0,0.0,0.0,0.0,0.0,0.0,0.0,0.0,0.0,0.0,0.0,0.0,0.0,0.0,0.0,0.0,0.0,0.0,0.0,0.0,0.0,0.0,0.0,0.0,0.0,0.0,0.0,0.0,0.0,0.0,0.0,0.0,0.0,0.0,0.0,0.0,0.0,0.0,0.0,0.0,0.0,0.0,2.33816721801,2.32278453894,2.30740185987,2.29201918081,2.29201918081,2.27663650174,2.27663650174,2.26125382268,2.24587114361,2.21510578548,2.18434042735,2.15357506922,2.13819239015,2.12280971108,2.12280971108,2.10742703202,2.09204435295,2.07666167389,2.06127899482,2.04589631575,2.03051363669,2.01513095762,1.99974827856,1.99974827856,1.98436559949,1.96898292043,1.96898292043,1.95360024136,1.92283488323,1.90745220416,1.87668684603,1.86130416696,1.8459214879,1.8459214879,1.83053880883,1.83053880883,1.81515612977,1.81515612977,1.7997734507,1.78439077164,1.76900809257,1.7536254135,1.73824273444,1.72286005537,1.70747737631,1.70747737631,1.69209469724,1.66132933911,1.64594666004,1.63056398098,1.63056398098,1.61518130191,1.59979862285,1.58441594378,1.58441594378,1.56903326471,1.55365058565,1.53826790658,1.53826790658,1.52288522752,1.52288522752,1.50750254845,1.49211986938,1.47673719032,1.46135451125,1.44597183219,1.43058915312,1.41520647406,1.39982379499,1.39982379499,1.38444111592,1.38444111592,1.36905843686,1.35367575779,1.35367575779,1.33829307873,1.32291039966,1.3075277206,1.3075277206,1.29214504153,1.27676236246,1.27676236246,1.2613796834,1.24599700433,1.24599700433,1.23061432527,1.2152316462,1.19984896713,1.18446628807,1.18446628807,1.169083609,1.15370092994,1.13831825087,1.12293557181,1.12293557181,1.10755289274,1.09217021367,1.09217021367,1.07678753461,1.07678753461,1.06140485554,1.06140485554,1.04602217648,1.03063949741,1.01525681834,0.999874139279,0.999874139279,0.984491460213,0.984491460213,0.969108781147,0.969108781147,0.953726102081,0.938343423015,0.938343423015,0.922960743949,0.907578064884,0.907578064884,0.892195385818,0.876812706752,0.861430027686,0.861430027686,0.84604734862,0.830664669555,0.830664669555,0.815281990489,0.815281990489,0.799899311423,0.799899311423,0.784516632357,0.769133953291,0.753751274225,0.753751274225,0.73836859516,0.722985916094,0.722985916094,0.707603237028,0.707603237028,0.692220557962,0.692220557962,0.676837878896,0.676837878896,0.66145519983,0.646072520765,0.646072520765,0.630689841699,0.615307162633,0.615307162633,0.615307162633,0.599924483567,0.599924483567,0.584541804501,0.584541804501,0.569159125435,0.569159125435,0.55377644637,0.55377644637,0.538393767304,0.523011088238,0.523011088238,0.507628409172,0.507628409172,0.492245730106,0.476863051041,0.476863051041,0.461480371975,0.461480371975,0.446097692909,0.446097692909,0.430715013843,0.430715013843,0.415332334777,0.399949655711,0.399949655711,0.384566976646,0.384566976646,0.36918429758,0.36918429758,0.353801618514,0.353801618514,0.338418939448,0.338418939448,0.338418939448,0.323036260382,0.307653581316,0.307653581316,0.292270902251,0.292270902251,0.276888223185,0.276888223185,0.261505544119,0.261505544119,0.246122865053,0.246122865053,0.230740185987,0.230740185987,0.215357506922,0.215357506922,0.199974827856,0.199974827856,0.18459214879,0.18459214879,0.169209469724,0.169209469724,0.153826790658,0.153826790658,0.138444111592,0.138444111592,0.123061432527,0.123061432527,0.107678753461,0.107678753461,0.0922960743949,0.0922960743949,0.0769133953291,0.0769133953291,0.0769133953291,0.0615307162633,0.0615307162633,0.0461480371975,0.0461480371975,0.0307653581316,0.0307653581316,0.0153826790658,0.0153826790658,0.0,0.0,-0.0153826790658,-0.0153826790658,-0.0153826790658,-0.0307653581316,-0.0307653581316,-0.0461480371975,-0.0461480371975,-0.0615307162633,-0.0615307162633,-0.0769133953291,-0.0769133953291,-0.0769133953291,-0.0922960743949,-0.0922960743949,-0.107678753461,-0.107678753461,-0.123061432527,-0.123061432527,-0.138444111592,-0.138444111592,-0.138444111592,-0.153826790658,-0.153826790658,-0.169209469724,-0.169209469724,-0.18459214879,-0.18459214879,-0.18459214879,-0.199974827856,-0.199974827856,-0.215357506922,-0.215357506922,-0.215357506922,-0.230740185987,-0.230740185987,-0.246122865053,-0.246122865053,-0.261505544119,-0.261505544119,-0.261505544119,-0.276888223185,-0.276888223185,-0.276888223185,-0.292270902251,-0.292270902251,-0.307653581316,-0.307653581316,-0.323036260382,-0.323036260382,-0.323036260382,-0.338418939448,-0.338418939448,-0.338418939448,-0.353801618514,-0.353801618514,-0.36918429758,-0.36918429758,-0.384566976646,-0.384566976646,-0.399949655711,-0.399949655711,-0.399949655711,-0.415332334777,-0.415332334777,-0.415332334777,-0.430715013843,-0.430715013843,-0.446097692909,-0.446097692909,-0.446097692909,-0.461480371975,-0.461480371975,-0.461480371975,-0.476863051041,-0.476863051041,-0.492245730106,-0.492245730106,-0.492245730106,-0.507628409172,-0.507628409172,-0.507628409172,-0.523011088238,-0.523011088238,-0.538393767304,-0.538393767304,-0.538393767304,-0.55377644637,-0.55377644637,-0.569159125435,-0.569159125435,-0.569159125435,-0.584541804501,-0.584541804501,-0.599924483567,-0.599924483567,-0.615307162633,-0.615307162633,-0.615307162633,-0.630689841699,-0.630689841699,-0.646072520765,-0.646072520765,-0.646072520765,-0.66145519983,-0.66145519983,-0.66145519983,-0.676837878896,-0.676837878896,-0.676837878896,-0.692220557962,-0.692220557962,-0.692220557962,-0.707603237028,-0.707603237028,-0.722985916094,-0.722985916094,-0.722985916094,-0.73836859516,-0.73836859516,-0.73836859516,-0.753751274225,-0.753751274225,-0.753751274225,-0.769133953291,-0.769133953291,-0.769133953291,-0.784516632357,-0.784516632357,-0.799899311423,-0.799899311423,-0.799899311423,-0.815281990489,-0.815281990489,-0.815281990489,-0.830664669555,-0.830664669555,-0.830664669555,-0.84604734862,-0.84604734862,-0.84604734862,-0.861430027686,-0.861430027686,-0.861430027686,-0.876812706752,-0.876812706752,-0.876812706752,-0.892195385818,-0.892195385818,-0.892195385818,-0.907578064884,-0.907578064884,-0.907578064884,-0.922960743949,-0.922960743949,-0.922960743949,-0.922960743949,-0.938343423015,-0.938343423015,-0.953726102081,-0.953726102081,-0.953726102081,-0.969108781147,-0.969108781147,-0.969108781147,-0.984491460213
0.0,0.0,0.0,0.0,0.0,0.0,0.0,0.0,0.0,0.0,0.0,0.0,0.0,0.0,0.0,0.0,0.0,0.0,0.0,0.0,0.0,0.0,0.0,0.0,0.0,0.0,0.0,0.0,0.0,0.0,0.0,0.0,0.0,0.0,0.0,0.0,0.0,0.0,0.0,0.0,0.0,0.0,0.0,0.0,0.0,0.0,0.0,0.0,0.0,0.0,0.0,0.0,0.0,0.0,0.0,0.0,0.0,2.33816721801,2.32278453894,2.30740185987,2.29201918081,2.29201918081,2.27663650174,2.27663650174,2.24587114361,2.23048846454,2.19972310641,2.16895774828,2.13819239015,2.13819239015,2.12280971108,2.10742703202,2.09204435295,2.07666167389,2.06127899482,2.04589631575,2.03051363669,2.03051363669,2.01513095762,1.99974827856,1.99974827856,1.98436559949,1.96898292043,1.95360024136,1.93821756229,1.90745220416,1.87668684603,1.86130416696,1.86130416696,1.8459214879,1.8459214879,1.83053880883,1.83053880883,1.81515612977,1.7997734507,1.78439077164,1.76900809257,1.7536254135,1.73824273444,1.73824273444,1.72286005537,1.70747737631,1.69209469724,1.67671201817,1.66132933911,1.64594666004,1.63056398098,1.61518130191,1.61518130191,1.59979862285,1.58441594378,1.56903326471,1.55365058565,1.53826790658,1.53826790658,1.52288522752,1.52288522752,1.50750254845,1.49211986938,1.47673719032,1.46135451125,1.44597183219,1.43058915312,1.41520647406,1.41520647406,1.39982379499,1.38444111592,1.38444111592,1.36905843686,1.36905843686,1.35367575779,1.33829307873,1.32291039966,1.32291039966,1.3075277206,1.29214504153,1.29214504153,1.27676236246,1.2613796834,1.2613796834,1.24599700433,1.23061432527,1.2152316462,1.19984896713,1.18446628807,1.18446628807,1.169083609,1.15370092994,1.15370092994,1.13831825087,1.12293557181,1.10755289274,1.10755289274,1.09217021367,1.07678753461,1.07678753461,1.06140485554,1.06140485554,1.04602217648,1.04602217648,1.03063949741,1.01525681834,0.999874139279,0.984491460213,0.984491460213,0.969108781147,0.969108781147,0.953726102081,0.953726102081,0.938343423015,0.922960743949,0.907578064884,0.907578064884,0.892195385818,0.876812706752,0.876812706752,0.861430027686,0.84604734862,0.84604734862,0.830664669555,0.815281990489,0.815281990489,0.799899311423,0.799899311423,0.784516632357,0.769133953291,0.753751274225,0.753751274225,0.73836859516,0.73836859516,0.722985916094,0.722985916094,0.707603237028,0.707603237028,0.692220557962,0.676837878896,0.676837878896,0.66145519983,0.646072520765,0.646072520765,0.630689841699,0.630689841699,0.615307162633,0.615307162633,0.599924483567,0.599924483567,0.584541804501,0.584541804501,0.569159125435,0.569159125435,0.55377644637,0.55377644637,0.538393767304,0.523011088238,0.523011088238,0.507628409172,0.507628409172,0.492245730106,0.476863051041,0.476863051041,0.461480371975,0.461480371975,0.446097692909,0.446097692909,0.430715013843,0.430715013843,0.415332334777,0.415332334777,0.399949655711,0.384566976646,0.384566976646,0.36918429758,0.36918429758,0.36918429758,0.353801618514,0.353801618514,0.338418939448,0.338418939448,0.323036260382,0.307653581316,0.307653581316,0.292270902251,0.292270902251,0.276888223185,0.276888223185,0.261505544119,0.261505544119,0.246122865053,0.246122865053,0.230740185987,0.230740185987,0.215357506922,0.215357506922,0.199974827856,0.199974827856,0.18459214879,0.18459214879,0.169209469724,0.169209469724,0.153826790658,0.153826790658,0.138444111592,0.138444111592,0.123061432527,0.123061432527,0.107678753461,0.107678753461,0.0922960743949,0.0922960743949,0.0922960743949,0.0769133953291,0.0769133953291,0.0615307162633,0.0615307162633,0.0615307162633,0.0461480371975,0.0461480371975,0.0307653581316,0.0153826790658,0.0153826790658,0.0,0.0,-0.0153826790658,-0.0153826790658,-0.0153826790658,-0.0307653581316,-0.0307653581316,-0.0461480371975,-0.0461480371975,-0.0615307162633,-0.0615307162633,-0.0769133953291,-0.0769133953291,-0.0769133953291,-0.0922960743949,-0.0922960743949,-0.107678753461,-0.107678753461,-0.123061432527,-0.123061432527,-0.138444111592,-0.138444111592,-0.138444111592,-0.153826790658,-0.153826790658,-0.169209469724,-0.169209469724,-0.169209469724,-0.18459214879,-0.18459214879,-0.199974827856,-0.199974827856,-0.199974827856,-0.215357506922,-0.215357506922,-0.230740185987,-0.230740185987,-0.246122865053,-0.246122865053,-0.261505544119,-0.261505544119,-0.261505544119,-0.276888223185,-0.276888223185,-0.276888223185,-0.292270902251,-0.292270902251,-0.307653581316,-0.307653581316,-0.307653581316,-0.323036260382,-0.323036260382,-0.338418939448,-0.338418939448,-0.338418939448,-0.353801618514,-0.353801618514,-0.36918429758,-0.36918429758,-0.384566976646,-0.384566976646,-0.384566976646,-0.399949655711,-0.399949655711,-0.415332334777,-0.415332334777,-0.415332334777,-0.430715013843,-0.430715013843,-0.446097692909,-0.446097692909,-0.446097692909,-0.461480371975,-0.461480371975,-0.461480371975,-0.476863051041,-0.476863051041,-0.476863051041,-0.492245730106,-0.492245730106,-0.507628409172,-0.507628409172,-0.507628409172,-0.523011088238,-0.523011088238,-0.538393767304,-0.538393767304,-0.538393767304,-0.55377644637,-0.55377644637,-0.569159125435,-0.569159125435,-0.569159125435,-0.584541804501,-0.584541804501,-0.599924483567,-0.599924483567,-0.599924483567,-0.615307162633,-0.615307162633,-0.630689841699,-0.630689841699,-0.630689841699,-0.646072520765,-0.646072520765,-0.66145519983,-0.66145519983,-0.66145519983,-0.676837878896,-0.676837878896,-0.676837878896,-0.676837878896,-0.692220557962,-0.692220557962,-0.707603237028,-0.707603237028,-0.722985916094,-0.722985916094,-0.73836859516,-0.73836859516,-0.73836859516,-0.753751274225,-0.753751274225,-0.753751274225,-0.753751274225,-0.769133953291,-0.769133953291,-0.769133953291,-0.784516632357,-0.784516632357,-0.799899311423,-0.799899311423,-0.799899311423,-0.815281990489,-0.815281990489,-0.815281990489,-0.830664669555,-0.830664669555,-0.830664669555,-0.84604734862,-0.84604734862,-0.84604734862,-0.861430027686,-0.861430027686,-0.861430027686,-0.876812706752,-0.876812706752,-0.876812706752,-0.876812706752,-0.892195385818,-0.892195385818,-0.907578064884,-0.907578064884,-0.907578064884,-0.922960743949,-0.922960743949,-0.922960743949,-0.922960743949,-0.938343423015,-0.938343423015,-0.953726102081,-0.953726102081,-0.953726102081,-0.969108781147,-0.969108781147,-0.969108781147,-0.984491460213
0.0,0.0,0.0,0.0,0.0,0.0,0.0,0.0,0.0,0.0,0.0,0.0,0.0,0.0,0.0,0.0,0.0,0.0,0.0,0.0,0.0,0.0,0.0,0.0,0.0,0.0,0.0,0.0,0.0,0.0,0.0,0.0,0.0,0.0,0.0,0.0,0.0,0.0,0.0,0.0,0.0,0.0,0.0,0.0,0.0,0.0,0.0,0.0,0.0,0.0,0.0,0.0,2.41508061333,2.41508061333,0.0,0.0,2.35354989707,2.35354989707,2.33816721801,2.30740185987,2.30740185987,2.29201918081,2.27663650174,2.27663650174,2.26125382268,2.23048846454,2.19972310641,2.16895774828,2.15357506922,2.13819239015,2.12280971108,2.12280971108,2.10742703202,2.09204435295,2.07666167389,2.06127899482,2.04589631575,2.03051363669,2.01513095762,2.01513095762,1.99974827856,1.98436559949,1.98436559949,1.95360024136,1.93821756229,1.90745220416,1.8920695251,1.87668684603,1.86130416696,1.8459214879,1.8459214879,1.83053880883,1.83053880883,1.81515612977,1.7997734507,1.78439077164,1.76900809257,1.76900809257,1.7536254135,1.73824273444,1.72286005537,1.70747737631,1.69209469724,1.67671201817,1.66132933911,1.64594666004,1.63056398098,1.63056398098,1.61518130191,1.59979862285,1.58441594378,1.56903326471,1.55365058565,1.53826790658,1.53826790658,1.52288522752,1.52288522752,1.50750254845,1.50750254845,1.49211986938,1.46135451125,1.44597183219,1.43058915312,1.41520647406,1.41520647406,1.39982379499,1.39982379499,1.38444111592,1.38444111592,1.36905843686,1.35367575779,1.33829307873,1.33829307873,1.32291039966,1.3075277206,1.29214504153,1.29214504153,1.27676236246,1.27676236246,1.2613796834,1.24599700433,1.23061432527,1.2152316462,1.19984896713,1.18446628807,1.18446628807,1.169083609,1.169083609,1.15370092994,1.13831825087,1.12293557181,1.12293557181,1.10755289274,1.09217021367,1.09217021367,1.07678753461,1.07678753461,1.06140485554,1.06140485554,1.04602217648,1.03063949741,1.01525681834,0.999874139279,0.984491460213,0.984491460213,0.969108781147,0.969108781147,0.953726102081,0.953726102081,0.938343423015,0.922960743949,0.922960743949,0.907578064884,0.892195385818,0.892195385818,0.876812706752,0.861430027686,0.84604734862,0.84604734862,0.830664669555,0.830664669555,0.815281990489,0.799899311423,0.799899311423,0.784516632357,0.769133953291,0.769133953291,0.753751274225,0.73836859516,0.73836859516,0.722985916094,0.722985916094,0.707603237028,0.707603237028,0.692220557962,0.692220557962,0.676837878896,0.66145519983,0.66145519983,0.646072520765,0.630689841699,0.630689841699,0.615307162633,0.615307162633,0.599924483567,0.599924483567,0.584541804501,0.584541804501,0.569159125435,0.569159125435,0.55377644637,0.55377644637,0.538393767304,0.538393767304,0.523011088238,0.507628409172,0.507628409172,0.492245730106,0.476863051041,0.476863051041,0.461480371975,0.461480371975,0.446097692909,0.446097692909,0.430715013843,0.430715013843,0.415332334777,0.415332334777,0.399949655711,0.399949655711,0.384566976646,0.384566976646,0.36918429758,0.36918429758,0.353801618514,0.353801618514,0.338418939448,0.338418939448,0.323036260382,0.307653581316,0.307653581316,0.292270902251,0.292270902251,0.276888223185,0.276888223185,0.261505544119,0.261505544119,0.246122865053,0.246122865053,0.230740185987,0.230740185987,0.215357506922,0.215357506922,0.215357506922,0.199974827856,0.18459214879,0.18459214879,0.169209469724,0.169209469724,0.153826790658,0.153826790658,0.138444111592,0.138444111592,0.123061432527,0.123061432527,0.107678753461,0.107678753461,0.107678753461,0.0922960743949,0.0922960743949,0.0769133953291,0.0769133953291,0.0769133953291,0.0615307162633,0.0615307162633,0.0461480371975,0.0461480371975,0.0307653581316,0.0307653581316,0.0153826790658,0.0,0.0,-0.0153826790658,-0.0153826790658,-0.0153826790658,-0.0307653581316,-0.0307653581316,-0.0461480371975,-0.0461480371975,-0.0461480371975,-0.0615307162633,-0.0615307162633,-0.0769133953291,-0.0769133953291,-0.0922960743949,-0.0922960743949,-0.107678753461,-0.107678753461,-0.123061432527,-0.123061432527,-0.123061432527,-0.138444111592,-0.138444111592,-0.153826790658,-0.153826790658,-0.153826790658,-0.169209469724,-0.169209469724,-0.18459214879,-0.18459214879,-0.199974827856,-0.199974827856,-0.199974827856,-0.215357506922,-0.215357506922,-0.230740185987,-0.230740185987,-0.246122865053,-0.246122865053,-0.246122865053,-0.261505544119,-0.261505544119,-0.276888223185,-0.276888223185,-0.276888223185,-0.292270902251,-0.292270902251,-0.292270902251,-0.307653581316,-0.307653581316,-0.323036260382,-0.323036260382,-0.338418939448,-0.338418939448,-0.338418939448,-0.353801618514,-0.353801618514,-0.36918429758,-0.36918429758,-0.384566976646,-0.384566976646,-0.384566976646,-0.399949655711,-0.399949655711,-0.415332334777,-0.415332334777,-0.415332334777,-0.430715013843,-0.430715013843,-0.430715013843,-0.446097692909,-0.446097692909,-0.461480371975,-0.461480371975,-0.461480371975,-0.476863051041,-0.476863051041,-0.476863051041,-0.492245730106,-0.492245730106,-0.507628409172,-0.507628409172,-0.507628409172,-0.523011088238,-0.523011088238,-0.538393767304,-0.538393767304,-0.538393767304,-0.55377644637,-0.55377644637,-0.569159125435,-0.569159125435,-0.569159125435,-0.584541804501,-0.584541804501,-0.599924483567,-0.599924483567,-0.599924483567,-0.615307162633,-0.615307162633,-0.630689841699,-0.630689841699,-0.630689841699,-0.646072520765,-0.646072520765,-0.66145519983,-0.66145519983,-0.66145519983,-0.66145519983,-0.676837878896,-0.676837878896,-0.676837878896,-0.692220557962,-0.692220557962,-0.707603237028,-0.707603237028,-0.722985916094,-0.722985916094,-0.73836859516,-0.73836859516,-0.73836859516,-0.753751274225,-0.753751274225,-0.753751274225,-0.753751274225,-0.769133953291,-0.769133953291,-0.769133953291,-0.784516632357,-0.784516632357,-0.799899311423,-0.799899311423,-0.799899311423,-0.815281990489,-0.815281990489,-0.815281990489,-0.830664669555,-0.830664669555,-0.830664669555,-0.84604734862,-0.84604734862,-0.84604734862,-0.861430027686,-0.861430027686,-0.861430027686,-0.876812706752,-0.876812706752,-0.876812706752,-0.876812706752,-0.892195385818,-0.892195385818,-0.907578064884,-0.907578064884,-0.907578064884,-0.922960743949,-0.922960743949,-0.922960743949,-0.922960743949,-0.938343423015,-0.938343423015,-0.953726102081,-0.953726102081,-0.953726102081,-0.969108781147,-0.969108781147,-0.969108781147,-0.984491460213
