0.0,0.0,0.0,0.0,0.0,0.0,0.0,0.0,0.0,0.0,0.0,0.0,0.0,0.0,0.0,0.0,0.0,0.0,0.0,0.0,0.0,0.0,0.0,0.0,0.0,0.0,0.0,0.0,0.0,0.0,0.0,0.0,0.0,0.0,0.0,0.0,0.0,0.0,0.0,0.0,0.0,0.0,0.0,0.0,0.0,0.0,0.0,0.0,0.0,0.0,0.0,0.0,0.0,0.0,0.0,0.0,0.0,0.0,0.0,0.0,0.0,0.0,0.0,0.0,0.0,0.0,0.0,0.0,0.0,0.0,0.0,0.0,0.0,0.0,0.0,0.0,0.0,0.0,0.0,0.0,0.0,0.0,0.0,0.0,0.0,0.0,0.0,0.0,0.0,0.0,0.0,0.0,0.0,0.0,0.0,0.0,0.0,0.0,0.0,0.0,0.0,0.0,0.0,0.0,0.0,0.0,0.0,0.0,0.0,0.0,0.0,0.0,0.0,0.0,0.0,0.0,0.0,0.0,0.0,0.0,0.0,0.0,0.0,0.0,0.0,0.0,0.0,0.0,0.0,0.0,0.0,0.0,0.0,0.0,0.0,0.0,0.0,0.0,0.0,0.0,0.0,0.0,2.32092508242,2.32092508242,2.30604735754,2.29116963265,2.29116963265,2.27629190776,2.24653645799,2.20190328332,2.18702555844,2.15727010866,2.14239238378,2.14239238378,2.12751465889,2.12751465889,2.12751465889,2.112636934,2.09775920911,2.08288148423,2.05312603445,2.03824830956,2.02337058468,2.00849285979,1.9936151349,1.97873741001,1.96385968513,1.94898196024,1.91922651047,1.90434878558,1.88947106069,1.8745933358,1.85971561092,1.84483788603,1.82996016114,1.81508243625,1.80020471137,1.77044926159,1.77044926159,1.7555715367,1.74069381182,1.74069381182,1.72581608693,1.72581608693,1.71093836204,1.69606063716,1.68118291227,1.66630518738,1.65142746249,1.63654973761,1.62167201272,1.60679428783,1.59191656294,1.59191656294,1.57703883806,1.56216111317,1.53240566339,1.51752793851,1.50265021362,1.50265021362,1.50265021362,1.48777248873,1.48777248873,1.47289476385,1.45801703896,1.44313931407,1.42826158918,1.4133838643,1.39850613941,1.38362841452,1.36875068963,1.35387296475,1.33899523986,1.32411751497,1.32411751497,1.30923979008,1.2943620652,1.2943620652,1.27948434031,1.27948434031,1.26460661542,1.24972889054,1.23485116565,1.21997344076,1.20509571587,1.19021799099,1.19021799099,1.1753402661,1.16046254121,1.16046254121,1.14558481632,1.13070709144,1.11582936655,1.11582936655,1.10095164166,1.08607391678,1.08607391678,1.07119619189,1.07119619189,1.056318467,1.04144074211,1.02656301723,1.01168529234,1.01168529234,0.996807567451,0.981929842564,0.981929842564,0.967052117676,0.952174392789,0.937296667902,0.922418943014,0.907541218127,0.907541218127,0.89266349324,0.89266349324,0.877785768352,0.877785768352,0.862908043465,0.862908043465,0.848030318578,0.83315259369,0.83315259369,0.818274868803,0.803397143916,0.788519419028,0.773641694141,0.773641694141,0.758763969254,0.758763969254,0.743886244366,0.743886244366,0.729008519479,0.729008519479,0.714130794592,0.699253069704,0.699253069704,0.684375344817,0.66949761993,0.654619895042,0.639742170155,0.624864445268,0.624864445268,0.60998672038,0.60998672038,0.595108995493,0.595108995493,0.580231270606,0.580231270606,0.565353545719,0.565353545719,0.550475820831,0.535598095944,0.535598095944,0.520720371057,0.520720371057,0.505842646169,0.505842646169,0.490964921282,0.490964921282,0.476087196395,0.461209471507,0.44633174662,0.44633174662,0.431454021733,0.431454021733,0.416576296845,0.416576296845,0.401698571958,0.401698571958,0.386820847071,0.386820847071,0.371943122183,0.371943122183,0.357065397296,0.342187672409,0.342187672409,0.327309947521,0.327309947521,0.312432222634,0.312432222634,0.297554497747,0.297554497747,0.282676772859,0.267799047972,0.267799047972,0.252921323085,0.252921323085,0.238043598197,0.238043598197,0.22316587331,0.22316587331,0.208288148423,0.208288148423,0.193410423535,0.193410423535,0.178532698648,0.178532698648,0.163654973761,0.163654973761,0.148777248873,0.133899523986,0.133899523986,0.119021799099,0.119021799099,0.104144074211,0.104144074211,0.089266349324,0.089266349324,0.089266349324,0.0743886244366,0.0743886244366,0.0595108995493,0.0595108995493,0.044633174662,0.044633174662,0.0297554497747,0.0148777248873,0.0148777248873,0.0,0.0,-0.0148777248873,-0.0148777248873,-0.0148777248873,-0.0297554497747,-0.0297554497747,-0.044633174662,-0.044633174662,-0.0595108995493,-0.0595108995493,-0.0743886244366,-0.0743886244366,-0.089266349324,-0.089266349324,-0.104144074211,-0.104144074211,-0.104144074211,-0.119021799099,-0.133899523986,-0.133899523986,-0.148777248873,-0.148777248873,-0.148777248873,-0.163654973761,-0.163654973761,-0.178532698648,-0.178532698648,-0.193410423535,-0.193410423535,-0.208288148423,-0.208288148423,-0.208288148423,-0.22316587331,-0.22316587331,-0.238043598197,-0.238043598197,-0.238043598197,-0.252921323085,-0.252921323085,-0.267799047972,-0.267799047972,-0.282676772859,-0.282676772859,-0.297554497747,-0.297554497747,-0.297554497747,-0.312432222634,-0.312432222634,-0.327309947521,-0.327309947521,-0.342187672409,-0.342187672409,-0.342187672409,-0.357065397296,-0.357065397296,-0.371943122183,-0.371943122183,-0.371943122183,-0.386820847071,-0.386820847071,-0.401698571958,-0.401698571958,-0.401698571958,-0.416576296845,-0.416576296845,-0.431454021733,-0.431454021733,-0.431454021733,-0.44633174662,-0.44633174662,-0.461209471507,-0.461209471507,-0.476087196395,-0.476087196395,-0.476087196395,-0.490964921282,-0.490964921282,-0.490964921282,-0.505842646169,-0.505842646169,-0.520720371057,-0.520720371057,-0.535598095944,-0.535598095944,-0.535598095944,-0.550475820831,-0.550475820831,-0.565353545719,-0.565353545719,-0.580231270606,-0.580231270606,-0.580231270606
0.0,0.0,0.0,0.0,0.0,0.0,0.0,0.0,0.0,0.0,0.0,0.0,0.0,0.0,0.0,0.0,0.0,0.0,0.0,0.0,0.0,0.0,0.0,0.0,0.0,0.0,0.0,0.0,0.0,0.0,0.0,0.0,0.0,0.0,0.0,0.0,0.0,0.0,0.0,0.0,0.0,0.0,0.0,0.0,0.0,0.0,0.0,0.0,0.0,0.0,0.0,0.0,0.0,0.0,0.0,0.0,0.0,0.0,0.0,0.0,0.0,0.0,0.0,0.0,0.0,0.0,0.0,0.0,0.0,0.0,0.0,0.0,0.0,0.0,0.0,0.0,0.0,0.0,0.0,0.0,0.0,0.0,0.0,0.0,0.0,0.0,0.0,0.0,0.0,0.0,0.0,0.0,0.0,0.0,0.0,0.0,0.0,0.0,0.0,0.0,0.0,0.0,0.0,0.0,0.0,0.0,0.0,0.0,0.0,0.0,0.0,0.0,0.0,0.0,0.0,0.0,0.0,0.0,0.0,0.0,0.0,0.0,0.0,0.0,0.0,0.0,0.0,0.0,0.0,0.0,0.0,0.0,0.0,0.0,0.0,2.48458005618,2.43994688152,2.39531370686,0.0,0.0,0.0,2.33580280731,2.32092508242,2.32092508242,2.30604735754,2.29116963265,2.29116963265,2.27629190776,2.24653645799,2.20190328332,2.18702555844,2.15727010866,2.14239238378,2.14239238378,2.12751465889,2.12751465889,2.112636934,2.112636934,2.09775920911,2.08288148423,2.05312603445,2.03824830956,2.02337058468,2.02337058468,2.00849285979,1.9936151349,1.97873741001,1.96385968513,1.93410423535,1.91922651047,1.88947106069,1.8745933358,1.85971561092,1.84483788603,1.82996016114,1.81508243625,1.80020471137,1.78532698648,1.77044926159,1.7555715367,1.7555715367,1.74069381182,1.72581608693,1.72581608693,1.71093836204,1.69606063716,1.68118291227,1.66630518738,1.65142746249,1.63654973761,1.62167201272,1.60679428783,1.60679428783,1.59191656294,1.57703883806,1.56216111317,1.53240566339,1.51752793851,1.51752793851,1.50265021362,1.50265021362,1.48777248873,1.48777248873,1.47289476385,1.45801703896,1.44313931407,1.42826158918,1.4133838643,1.39850613941,1.38362841452,1.36875068963,1.35387296475,1.33899523986,1.33899523986,1.32411751497,1.30923979008,1.30923979008,1.2943620652,1.27948434031,1.27948434031,1.26460661542,1.24972889054,1.23485116565,1.21997344076,1.20509571587,1.20509571587,1.19021799099,1.1753402661,1.1753402661,1.16046254121,1.14558481632,1.13070709144,1.13070709144,1.11582936655,1.10095164166,1.10095164166,1.08607391678,1.07119619189,1.07119619189,1.056318467,1.04144074211,1.02656301723,1.02656301723,1.01168529234,0.996807567451,0.981929842564,0.981929842564,0.967052117676,0.952174392789,0.937296667902,0.922418943014,0.922418943014,0.907541218127,0.89266349324,0.89266349324,0.877785768352,0.877785768352,0.862908043465,0.862908043465,0.848030318578,0.83315259369,0.83315259369,0.818274868803,0.803397143916,0.788519419028,0.773641694141,0.773641694141,0.758763969254,0.758763969254,0.743886244366,0.743886244366,0.743886244366,0.729008519479,0.714130794592,0.714130794592,0.699253069704,0.684375344817,0.66949761993,0.654619895042,0.639742170155,0.639742170155,0.624864445268,0.60998672038,0.60998672038,0.595108995493,0.595108995493,0.580231270606,0.580231270606,0.565353545719,0.565353545719,0.550475820831,0.550475820831,0.535598095944,0.520720371057,0.520720371057,0.505842646169,0.505842646169,0.490964921282,0.490964921282,0.476087196395,0.461209471507,0.461209471507,0.44633174662,0.431454021733,0.431454021733,0.416576296845,0.416576296845,0.401698571958,0.401698571958,0.386820847071,0.386820847071,0.371943122183,0.371943122183,0.357065397296,0.357065397296,0.342187672409,0.327309947521,0.327309947521,0.312432222634,0.312432222634,0.297554497747,0.297554497747,0.282676772859,0.267799047972,0.267799047972,0.252921323085,0.252921323085,0.238043598197,0.238043598197,0.22316587331,0.22316587331,0.208288148423,0.208288148423,0.193410423535,0.193410423535,0.193410423535,0.178532698648,0.163654973761,0.163654973761,0.148777248873,0.148777248873,0.133899523986,0.119021799099,0.119021799099,0.104144074211,0.104144074211,0.089266349324,0.089266349324,0.089266349324,0.0743886244366,0.0743886244366,0.0595108995493,0.0595108995493,0.044633174662,0.044633174662,0.0297554497747,0.0297554497747,0.0148777248873,0.0,0.0,0.0,-0.0148777248873,-0.0148777248873,-0.0297554497747,-0.0297554497747,-0.044633174662,-0.044633174662,-0.0595108995493,-0.0595108995493,-0.0743886244366,-0.0743886244366,-0.089266349324,-0.089266349324,-0.089266349324,-0.104144074211,-0.104144074211,-0.119021799099,-0.119021799099,-0.133899523986,-0.133899523986,-0.148777248873,-0.148777248873,-0.163654973761,-0.163654973761,-0.178532698648,-0.178532698648,-0.178532698648,-0.193410423535,-0.193410423535,-0.208288148423,-0.208288148423,-0.22316587331,-0.22316587331,-0.238043598197,-0.238043598197,-0.238043598197,-0.252921323085,-0.252921323085,-0.267799047972,-0.267799047972,-0.282676772859,-0.282676772859,-0.297554497747,-0.297554497747,-0.297554497747,-0.312432222634,-0.312432222634,-0.327309947521,-0.327309947521,-0.327309947521,-0.342187672409,-0.342187672409,-0.357065397296,-0.357065397296,-0.371943122183,-0.371943122183,-0.371943122183,-0.386820847071,-0.386820847071,-0.401698571958,-0.401698571958,-0.401698571958,-0.416576296845,-0.416576296845,-0.431454021733,-0.431454021733,-0.431454021733,-0.44633174662,-0.44633174662,-0.461209471507,-0.461209471507,-0.476087196395,-0.476087196395,-0.476087196395,-0.490964921282,-0.490964921282,-0.490964921282,-0.505842646169,-0.505842646169,-0.520720371057,-0.520720371057,-0.520720371057,-0.535598095944,-0.535598095944,-0.550475820831,-0.550475820831,-0.565353545719,-0.565353545719,-0.580231270606,-0.580231270606,-0.580231270606
0.0,0.0,0.0,0.0,0.0,0.0,0.0,0.0,0.0,0.0,0.0,0.0,0.0,0.0,0.0,0.0,0.0,0.0,0.0,0.0,0.0,0.0,0.0,0.0,0.0,0.0,0.0,0.0,0.0,0.0,0.0,0.0,0.0,0.0,0.0,0.0,0.0,0.0,0.0,0.0,0.0,0.0,0.0,0.0,0.0,0.0,0.0,0.0,0.0,0.0,0.0,0.0,0.0,0.0,0.0,0.0,0.0,0.0,0.0,0.0,0.0,0.0,0.0,0.0,0.0,0.0,0.0,0.0,0.0,0.0,0.0,0.0,0.0,0.0,0.0,0.0,0.0,0.0,0.0,0.0,0.0,0.0,0.0,0.0,0.0,0.0,0.0,0.0,0.0,0.0,0.0,0.0,0.0,0.0,0.0,0.0,0.0,0.0,0.0,0.0,0.0,0.0,0.0,0.0,0.0,0.0,0.0,0.0,0.0,0.0,0.0,0.0,0.0,0.0,0.0,0.0,0.0,0.0,0.0,0.0,0.0,0.0,0.0,0.0,0.0,0.0,0.0,0.0,0.0,0.0,0.0,0.0,0.0,0.0,2.49945778107,2.4697023313,2.42506915663,2.39531370686,2.36555825709,2.3506805322,2.33580280731,2.33580280731,2.32092508242,2.32092508242,2.30604735754,2.29116963265,2.29116963265,2.26141418287,2.24653645799,2.21678100821,2.18702555844,2.15727010866,2.15727010866,2.14239238378,2.12751465889,2.12751465889,2.112636934,2.09775920911,2.08288148423,2.06800375934,2.05312603445,2.03824830956,2.03824830956,2.02337058468,2.00849285979,1.9936151349,1.97873741001,1.96385968513,1.93410423535,1.91922651047,1.88947106069,1.8745933358,1.85971561092,1.85971561092,1.84483788603,1.81508243625,1.80020471137,1.78532698648,1.77044926159,1.7555715367,1.7555715367,1.74069381182,1.74069381182,1.72581608693,1.71093836204,1.69606063716,1.69606063716,1.66630518738,1.65142746249,1.63654973761,1.62167201272,1.60679428783,1.60679428783,1.59191656294,1.57703883806,1.56216111317,1.54728338828,1.53240566339,1.51752793851,1.50265021362,1.50265021362,1.48777248873,1.48777248873,1.47289476385,1.45801703896,1.44313931407,1.42826158918,1.4133838643,1.39850613941,1.38362841452,1.36875068963,1.36875068963,1.35387296475,1.33899523986,1.32411751497,1.30923979008,1.30923979008,1.2943620652,1.27948434031,1.27948434031,1.26460661542,1.24972889054,1.23485116565,1.21997344076,1.21997344076,1.20509571587,1.19021799099,1.19021799099,1.1753402661,1.16046254121,1.16046254121,1.14558481632,1.13070709144,1.11582936655,1.11582936655,1.10095164166,1.08607391678,1.08607391678,1.07119619189,1.056318467,1.04144074211,1.04144074211,1.02656301723,1.01168529234,0.996807567451,0.996807567451,0.981929842564,0.967052117676,0.952174392789,0.937296667902,0.937296667902,0.922418943014,0.907541218127,0.907541218127,0.89266349324,0.877785768352,0.877785768352,0.862908043465,0.862908043465,0.848030318578,0.83315259369,0.83315259369,0.818274868803,0.803397143916,0.788519419028,0.788519419028,0.773641694141,0.758763969254,0.758763969254,0.758763969254,0.743886244366,0.743886244366,0.729008519479,0.714130794592,0.714130794592,0.699253069704,0.684375344817,0.66949761993,0.654619895042,0.639742170155,0.639742170155,0.624864445268,0.624864445268,0.60998672038,0.60998672038,0.595108995493,0.595108995493,0.580231270606,0.565353545719,0.565353545719,0.550475820831,0.550475820831,0.535598095944,0.535598095944,0.520720371057,0.520720371057,0.505842646169,0.490964921282,0.490964921282,0.476087196395,0.476087196395,0.461209471507,0.44633174662,0.431454021733,0.431454021733,0.416576296845,0.416576296845,0.401698571958,0.401698571958,0.401698571958,0.386820847071,0.371943122183,0.371943122183,0.357065397296,0.357065397296,0.342187672409,0.342187672409,0.327309947521,0.327309947521,0.312432222634,0.312432222634,0.297554497747,0.282676772859,0.282676772859,0.267799047972,0.252921323085,0.252921323085,0.238043598197,0.238043598197,0.22316587331,0.22316587331,0.208288148423,0.208288148423,0.208288148423,0.193410423535,0.193410423535,0.178532698648,0.178532698648,0.163654973761,0.148777248873,0.148777248873,0.133899523986,0.133899523986,0.119021799099,0.104144074211,0.104144074211,0.104144074211,0.089266349324,0.089266349324,0.0743886244366,0.0743886244366,0.0595108995493,0.0595108995493,0.044633174662,0.044633174662,0.0297554497747,0.0297554497747,0.0148777248873,0.0148777248873,0.0,0.0,-0.0148777248873,-0.0148777248873,-0.0297554497747,-0.0297554497747,-0.044633174662,-0.044633174662,-0.0595108995493,-0.0595108995493,-0.0743886244366,-0.0743886244366,-0.089266349324,-0.089266349324,-0.089266349324,-0.104144074211,-0.104144074211,-0.119021799099,-0.119021799099,-0.133899523986,-0.133899523986,-0.148777248873,-0.148777248873,-0.163654973761,-0.163654973761,-0.178532698648,-0.178532698648,-0.178532698648,-0.193410423535,-0.193410423535,-0.208288148423,-0.208288148423,-0.22316587331,-0.22316587331,-0.22316587331,-0.238043598197,-0.238043598197,-0.252921323085,-0.252921323085,-0.267799047972,-0.267799047972,-0.267799047972,-0.282676772859,-0.282676772859,-0.297554497747,-0.297554497747,-0.312432222634,-0.312432222634,-0.327309947521,-0.327309947521,-0.327309947521,-0.342187672409,-0.342187672409,-0.357065397296,-0.357065397296,-0.371943122183,-0.371943122183,-0.371943122183,-0.386820847071,-0.386820847071,-0.401698571958,-0.401698571958,-0.401698571958,-0.416576296845,-0.416576296845,-0.431454021733,-0.431454021733,-0.431454021733,-0.44633174662,-0.44633174662,-0.461209471507,-0.461209471507,-0.476087196395,-0.476087196395,-0.476087196395,-0.490964921282,-0.490964921282,-0.490964921282,-0.505842646169,-0.505842646169,-0.520720371057,-0.520720371057,-0.520720371057,-0.535598095944,-0.535598095944,-0.550475820831,-0.550475820831,-0.565353545719,-0.565353545719,-0.565353545719,-0.580231270606,-0.580231270606
0.0,0.0,0.0,0.0,0.0,0.0,0.0,0.0,0.0,0.0,0.0,0.0,0.0,0.0,0.0,0.0,0.0,0.0,0.0,0.0,0.0,0.0,0.0,0.0,0.0,0.0,0.0,0.0,0.0,0.0,0.0,0.0,0.0,0.0,0.0,0.0,0.0,0.0,0.0,0.0,0.0,0.0,0.0,0.0,0.0,0.0,0.0,0.0,0.0,0.0,0.0,0.0,0.0,0.0,0.0,0.0,0.0,0.0,0.0,0.0,0.0,0.0,0.0,0.0,0.0,0.0,0.0,0.0,0.0,0.0,0.0,0.0,0.0,0.0,0.0,0.0,0.0,0.0,0.0,0.0,0.0,0.0,0.0,0.0,0.0,0.0,0.0,0.0,0.0,0.0,0.0,0.0,0.0,0.0,0.0,0.0,0.0,0.0,0.0,0.0,0.0,0.0,0.0,0.0,0.0,0.0,0.0,0.0,0.0,0.0,0.0,0.0,0.0,0.0,0.0,0.0,0.0,0.0,0.0,0.0,0.0,0.0,0.0,0.0,0.0,0.0,0.0,0.0,0.0,0.0,0.0,0.0,0.0,0.0,2.49945778107,2.45482460641,2.41019143175,2.38043598197,2.36555825709,2.3506805322,2.33580280731,2.33580280731,2.32092508242,2.32092508242,2.30604735754,2.29116963265,2.29116963265,2.26141418287,2.24653645799,2.21678100821,2.18702555844,2.17214783355,2.15727010866,2.14239238378,2.12751465889,2.112636934,2.112636934,2.09775920911,2.08288148423,2.06800375934,2.05312603445,2.03824830956,2.03824830956,2.02337058468,2.00849285979,1.9936151349,1.97873741001,1.96385968513,1.93410423535,1.91922651047,1.90434878558,1.88947106069,1.8745933358,1.85971561092,1.84483788603,1.82996016114,1.81508243625,1.80020471137,1.78532698648,1.77044926159,1.7555715367,1.74069381182,1.74069381182,1.72581608693,1.71093836204,1.71093836204,1.69606063716,1.66630518738,1.65142746249,1.63654973761,1.62167201272,1.60679428783,1.60679428783,1.59191656294,1.57703883806,1.56216111317,1.54728338828,1.53240566339,1.51752793851,1.51752793851,1.50265021362,1.48777248873,1.48777248873,1.47289476385,1.45801703896,1.44313931407,1.42826158918,1.4133838643,1.39850613941,1.39850613941,1.38362841452,1.36875068963,1.35387296475,1.33899523986,1.32411751497,1.32411751497,1.30923979008,1.2943620652,1.27948434031,1.27948434031,1.26460661542,1.24972889054,1.23485116565,1.23485116565,1.21997344076,1.20509571587,1.19021799099,1.19021799099,1.1753402661,1.1753402661,1.16046254121,1.14558481632,1.13070709144,1.13070709144,1.11582936655,1.10095164166,1.08607391678,1.08607391678,1.07119619189,1.056318467,1.056318467,1.04144074211,1.02656301723,1.01168529234,1.01168529234,0.996807567451,0.981929842564,0.967052117676,0.952174392789,0.952174392789,0.937296667902,0.922418943014,0.907541218127,0.907541218127,0.89266349324,0.89266349324,0.877785768352,0.862908043465,0.862908043465,0.848030318578,0.83315259369,0.83315259369,0.818274868803,0.803397143916,0.788519419028,0.788519419028,0.773641694141,0.773641694141,0.758763969254,0.758763969254,0.743886244366,0.743886244366,0.729008519479,0.714130794592,0.714130794592,0.699253069704,0.684375344817,0.66949761993,0.654619895042,0.654619895042,0.639742170155,0.624864445268,0.624864445268,0.60998672038,0.60998672038,0.595108995493,0.595108995493,0.580231270606,0.580231270606,0.565353545719,0.550475820831,0.550475820831,0.535598095944,0.535598095944,0.520720371057,0.520720371057,0.505842646169,0.505842646169,0.490964921282,0.476087196395,0.476087196395,0.461209471507,0.44633174662,0.44633174662,0.431454021733,0.416576296845,0.416576296845,0.416576296845,0.401698571958,0.401698571958,0.386820847071,0.386820847071,0.371943122183,0.357065397296,0.357065397296,0.342187672409,0.342187672409,0.327309947521,0.327309947521,0.312432222634,0.312432222634,0.297554497747,0.282676772859,0.282676772859,0.267799047972,0.267799047972,0.252921323085,0.252921323085,0.238043598197,0.238043598197,0.22316587331,0.22316587331,0.208288148423,0.208288148423,0.193410423535,0.193410423535,0.178532698648,0.178532698648,0.163654973761,0.163654973761,0.148777248873,0.133899523986,0.133899523986,0.119021799099,0.119021799099,0.104144074211,0.104144074211,0.089266349324,0.089266349324,0.0743886244366,0.0743886244366,0.0595108995493,0.0595108995493,0.044633174662,0.044633174662,0.0297554497747,0.0297554497747,0.0148777248873,0.0148777248873,0.0,0.0,-0.0148777248873,-0.0148777248873,-0.0297554497747,-0.0297554497747,-0.0297554497747,-0.044633174662,-0.0595108995493,-0.0595108995493,-0.0743886244366,-0.0743886244366,-0.0743886244366,-0.089266349324,-0.089266349324,-0.104144074211,-0.104144074211,-0.119021799099,-0.119021799099,-0.133899523986,-0.133899523986,-0.148777248873,-0.148777248873,-0.163654973761,-0.163654973761,-0.163654973761,-0.178532698648,-0.178532698648,-0.193410423535,-0.193410423535,-0.208288148423,-0.208288148423,-0.22316587331,-0.22316587331,-0.22316587331,-0.238043598197,-0.238043598197,-0.252921323085,-0.252921323085,-0.267799047972,-0.267799047972,-0.267799047972,-0.282676772859,-0.282676772859,-0.297554497747,-0.297554497747,-0.312432222634,-0.312432222634,-0.327309947521,-0.327309947521,-0.327309947521,-0.342187672409,-0.342187672409,-0.357065397296,-0.357065397296,-0.357065397296,-0.371943122183,-0.371943122183,-0.386820847071,-0.386820847071,-0.386820847071,-0.401698571958,-0.401698571958,-0.416576296845,-0.416576296845,-0.431454021733,-0.431454021733,-0.431454021733,-0.44633174662,-0.44633174662,-0.461209471507,-0.461209471507,-0.461209471507,-0.476087196395,-0.476087196395,-0.476087196395,-0.490964921282,-0.490964921282,-0.505842646169,-0.505842646169,-0.505842646169,-0.520720371057,-0.520720371057,-0.535598095944,-0.535598095944,-0.550475820831,-0.550475820831,-0.550475820831,-0.565353545719,-0.565353545719,-0.580231270606,-0.580231270606
0.0,0.0,0.0,0.0,0.0,0.0,0.0,0.0,0.0,0.0,0.0,0.0,0.0,0.0,0.0,0.0,0.0,0.0,0.0,0.0,0.0,0.0,0.0,0.0,0.0,0.0,0.0,0.0,0.0,0.0,0.0,0.0,0.0,0.0,0.0,0.0,0.0,0.0,0.0,0.0,0.0,0.0,0.0,0.0,0.0,0.0,0.0,0.0,0.0,0.0,0.0,0.0,0.0,0.0,0.0,0.0,0.0,0.0,0.0,0.0,0.0,0.0,0.0,0.0,0.0,0.0,0.0,0.0,0.0,0.0,0.0,0.0,0.0,0.0,0.0,0.0,0.0,0.0,0.0,0.0,0.0,0.0,0.0,0.0,0.0,0.0,0.0,0.0,0.0,0.0,0.0,0.0,0.0,0.0,0.0,0.0,0.0,0.0,0.0,0.0,0.0,0.0,0.0,0.0,0.0,0.0,0.0,0.0,0.0,0.0,0.0,0.0,0.0,0.0,0.0,0.0,0.0,0.0,0.0,0.0,0.0,0.0,0.0,0.0,0.0,0.0,0.0,0.0,0.0,0.0,0.0,0.0,0.0,0.0,2.49945778107,2.45482460641,2.41019143175,2.38043598197,2.36555825709,2.3506805322,2.33580280731,2.33580280731,2.32092508242,2.32092508242,2.30604735754,2.29116963265,2.29116963265,2.26141418287,2.24653645799,2.21678100821,2.20190328332,2.17214783355,2.15727010866,2.14239238378,2.12751465889,2.112636934,2.112636934,2.09775920911,2.08288148423,2.06800375934,2.05312603445,2.05312603445,2.03824830956,2.02337058468,2.00849285979,2.00849285979,1.9936151349,1.96385968513,1.94898196024,1.91922651047,1.90434878558,1.88947106069,1.8745933358,1.85971561092,1.84483788603,1.82996016114,1.81508243625,1.80020471137,1.78532698648,1.77044926159,1.7555715367,1.7555715367,1.74069381182,1.72581608693,1.72581608693,1.71093836204,1.69606063716,1.66630518738,1.65142746249,1.63654973761,1.62167201272,1.62167201272,1.60679428783,1.59191656294,1.59191656294,1.57703883806,1.54728338828,1.53240566339,1.51752793851,1.51752793851,1.50265021362,1.50265021362,1.48777248873,1.47289476385,1.45801703896,1.44313931407,1.44313931407,1.42826158918,1.4133838643,1.39850613941,1.38362841452,1.36875068963,1.35387296475,1.33899523986,1.33899523986,1.32411751497,1.30923979008,1.2943620652,1.2943620652,1.27948434031,1.26460661542,1.24972889054,1.24972889054,1.23485116565,1.21997344076,1.20509571587,1.20509571587,1.19021799099,1.1753402661,1.1753402661,1.16046254121,1.14558481632,1.14558481632,1.13070709144,1.11582936655,1.10095164166,1.10095164166,1.08607391678,1.07119619189,1.056318467,1.056318467,1.04144074211,1.02656301723,1.01168529234,1.01168529234,0.996807567451,0.981929842564,0.967052117676,0.967052117676,0.952174392789,0.937296667902,0.922418943014,0.922418943014,0.907541218127,0.89266349324,0.89266349324,0.877785768352,0.877785768352,0.862908043465,0.848030318578,0.83315259369,0.83315259369,0.818274868803,0.803397143916,0.788519419028,0.788519419028,0.773641694141,0.773641694141,0.758763969254,0.758763969254,0.743886244366,0.743886244366,0.729008519479,0.714130794592,0.714130794592,0.699253069704,0.684375344817,0.684375344817,0.66949761993,0.654619895042,0.639742170155,0.639742170155,0.624864445268,0.624864445268,0.60998672038,0.60998672038,0.595108995493,0.580231270606,0.580231270606,0.565353545719,0.550475820831,0.550475820831,0.535598095944,0.535598095944,0.520720371057,0.520720371057,0.505842646169,0.505842646169,0.490964921282,0.476087196395,0.476087196395,0.461209471507,0.44633174662,0.44633174662,0.431454021733,0.431454021733,0.416576296845,0.416576296845,0.401698571958,0.401698571958,0.386820847071,0.386820847071,0.371943122183,0.357065397296,0.357065397296,0.342187672409,0.342187672409,0.327309947521,0.327309947521,0.312432222634,0.312432222634,0.297554497747,0.297554497747,0.282676772859,0.267799047972,0.267799047972,0.252921323085,0.252921323085,0.238043598197,0.238043598197,0.22316587331,0.22316587331,0.208288148423,0.208288148423,0.193410423535,0.193410423535,0.178532698648,0.178532698648,0.163654973761,0.163654973761,0.148777248873,0.133899523986,0.133899523986,0.119021799099,0.119021799099,0.104144074211,0.104144074211,0.089266349324,0.089266349324,0.0743886244366,0.0743886244366,0.0595108995493,0.0595108995493,0.044633174662,0.044633174662,0.0297554497747,0.0297554497747,0.0148777248873,0.0148777248873,0.0,0.0,-0.0148777248873,-0.0148777248873,-0.0148777248873,-0.0297554497747,-0.0297554497747,-0.044633174662,-0.044633174662,-0.0595108995493,-0.0595108995493,-0.0743886244366,-0.0743886244366,-0.089266349324,-0.089266349324,-0.104144074211,-0.104144074211,-0.119021799099,-0.119021799099,-0.133899523986,-0.133899523986,-0.148777248873,-0.148777248873,-0.148777248873,-0.163654973761,-0.163654973761,-0.178532698648,-0.178532698648,-0.193410423535,-0.193410423535,-0.208288148423,-0.208288148423,-0.208288148423,-0.22316587331,-0.22316587331,-0.238043598197,-0.238043598197,-0.252921323085,-0.252921323085,-0.252921323085,-0.267799047972,-0.267799047972,-0.282676772859,-0.282676772859,-0.297554497747,-0.297554497747,-0.312432222634,-0.312432222634,-0.312432222634,-0.327309947521,-0.327309947521,-0.342187672409,-0.342187672409,-0.342187672409,-0.357065397296,-0.357065397296,-0.371943122183,-0.371943122183,-0.386820847071,-0.386820847071,-0.386820847071,-0.401698571958,-0.401698571958,-0.416576296845,-0.416576296845,-0.431454021733,-0.431454021733,-0.431454021733,-0.44633174662,-0.44633174662,-0.461209471507,-0.461209471507,-0.461209471507,-0.476087196395,-0.476087196395,-0.476087196395,-0.490964921282,-0.490964921282,-0.490964921282,-0.505842646169,-0.505842646169,-0.520720371057,-0.520720371057,-0.535598095944,-0.535598095944,-0.535598095944,-0.550475820831,-0.550475820831,-0.565353545719,-0.565353545719,-0.580231270606,-0.580231270606
0.0,0.0,0.0,0.0,0.0,0.0,0.0,0.0,0.0,0.0,0.0,0.0,0.0,0.0,0.0,0.0,0.0,0.0,0.0,0.0,0.0,0.0,0.0,0.0,0.0,0.0,0.0,0.0,0.0,0.0,0.0,0.0,0.0,0.0,0.0,0.0,0.0,0.0,0.0,0.0,0.0,0.0,0.0,0.0,0.0,0.0,0.0,0.0,0.0,0.0,0.0,0.0,0.0,0.0,0.0,0.0,0.0,0.0,0.0,0.0,0.0,0.0,0.0,0.0,0.0,0.0,0.0,0.0,0.0,0.0,0.0,0.0,0.0,0.0,0.0,0.0,0.0,0.0,0.0,0.0,0.0,0.0,0.0,0.0,0.0,0.0,0.0,0.0,0.0,0.0,0.0,0.0,0.0,0.0,0.0,0.0,0.0,0.0,0.0,0.0,0.0,0.0,0.0,0.0,0.0,0.0,0.0,0.0,0.0,0.0,0.0,0.0,0.0,0.0,0.0,0.0,0.0,0.0,0.0,0.0,0.0,0.0,0.0,0.0,0.0,0.0,0.0,0.0,0.0,0.0,0.0,0.0,0.0,0.0,0.0,2.48458005618,2.43994688152,2.38043598197,2.36555825709,2.3506805322,2.33580280731,2.33580280731,2.32092508242,2.32092508242,2.30604735754,2.30604735754,2.29116963265,2.27629190776,2.26141418287,2.2316587331,2.20190328332,2.18702555844,2.17214783355,2.14239238378,2.12751465889,2.112636934,2.112636934,2.09775920911,2.08288148423,2.06800375934,2.05312603445,2.05312603445,2.03824830956,2.02337058468,2.00849285979,2.00849285979,1.9936151349,1.96385968513,1.94898196024,1.91922651047,1.90434878558,1.88947106069,1.8745933358,1.85971561092,1.84483788603,1.82996016114,1.81508243625,1.80020471137,1.78532698648,1.77044926159,1.77044926159,1.7555715367,1.74069381182,1.74069381182,1.72581608693,1.71093836204,1.69606063716,1.68118291227,1.65142746249,1.63654973761,1.62167201272,1.62167201272,1.60679428783,1.60679428783,1.59191656294,1.57703883806,1.56216111317,1.54728338828,1.53240566339,1.51752793851,1.50265021362,1.50265021362,1.48777248873,1.47289476385,1.45801703896,1.44313931407,1.44313931407,1.42826158918,1.4133838643,1.39850613941,1.38362841452,1.36875068963,1.35387296475,1.35387296475,1.33899523986,1.32411751497,1.32411751497,1.30923979008,1.2943620652,1.27948434031,1.26460661542,1.26460661542,1.24972889054,1.23485116565,1.21997344076,1.20509571587,1.20509571587,1.19021799099,1.19021799099,1.1753402661,1.16046254121,1.16046254121,1.14558481632,1.13070709144,1.11582936655,1.11582936655,1.10095164166,1.08607391678,1.07119619189,1.07119619189,1.056318467,1.04144074211,1.02656301723,1.01168529234,1.01168529234,0.996807567451,0.981929842564,0.981929842564,0.967052117676,0.952174392789,0.937296667902,0.937296667902,0.922418943014,0.907541218127,0.907541218127,0.89266349324,0.877785768352,0.877785768352,0.862908043465,0.848030318578,0.848030318578,0.83315259369,0.818274868803,0.803397143916,0.788519419028,0.788519419028,0.773641694141,0.773641694141,0.758763969254,0.758763969254,0.743886244366,0.743886244366,0.729008519479,0.729008519479,0.714130794592,0.699253069704,0.699253069704,0.684375344817,0.66949761993,0.654619895042,0.639742170155,0.639742170155,0.624864445268,0.624864445268,0.60998672038,0.60998672038,0.595108995493,0.580231270606,0.580231270606,0.565353545719,0.565353545719,0.550475820831,0.535598095944,0.535598095944,0.520720371057,0.520720371057,0.505842646169,0.505842646169,0.490964921282,0.476087196395,0.476087196395,0.461209471507,0.44633174662,0.44633174662,0.431454021733,0.431454021733,0.416576296845,0.416576296845,0.401698571958,0.401698571958,0.386820847071,0.386820847071,0.371943122183,0.371943122183,0.357065397296,0.357065397296,0.342187672409,0.342187672409,0.327309947521,0.327309947521,0.312432222634,0.297554497747,0.297554497747,0.282676772859,0.267799047972,0.267799047972,0.252921323085,0.252921323085,0.238043598197,0.238043598197,0.22316587331,0.22316587331,0.208288148423,0.208288148423,0.208288148423,0.193410423535,0.193410423535,0.178532698648,0.163654973761,0.163654973761,0.148777248873,0.148777248873,0.133899523986,0.119021799099,0.119021799099,0.104144074211,0.104144074211,0.089266349324,0.089266349324,0.0743886244366,0.0743886244366,0.0595108995493,0.0595108995493,0.044633174662,0.044633174662,0.0297554497747,0.0297554497747,0.0148777248873,0.0148777248873,0.0,0.0,-0.0148777248873,-0.0148777248873,-0.0148777248873,-0.0297554497747,-0.0297554497747,-0.044633174662,-0.044633174662,-0.0595108995493,-0.0595108995493,-0.0743886244366,-0.0743886244366,-0.089266349324,-0.089266349324,-0.104144074211,-0.104144074211,-0.119021799099,-0.119021799099,-0.133899523986,-0.133899523986,-0.133899523986,-0.148777248873,-0.148777248873,-0.163654973761,-0.163654973761,-0.178532698648,-0.178532698648,-0.193410423535,-0.193410423535,-0.208288148423,-0.208288148423,-0.208288148423,-0.22316587331,-0.22316587331,-0.238043598197,-0.238043598197,-0.238043598197,-0.252921323085,-0.252921323085,-0.267799047972,-0.267799047972,-0.282676772859,-0.282676772859,-0.297554497747,-0.297554497747,-0.312432222634,-0.312432222634,-0.312432222634,-0.327309947521,-0.327309947521,-0.342187672409,-0.342187672409,-0.342187672409,-0.357065397296,-0.357065397296,-0.371943122183,-0.371943122183,-0.371943122183,-0.386820847071,-0.386820847071,-0.401698571958,-0.401698571958,-0.416576296845,-0.416576296845,-0.431454021733,-0.431454021733,-0.431454021733,-0.44633174662,-0.44633174662,-0.44633174662,-0.461209471507,-0.461209471507,-0.476087196395,-0.476087196395,-0.476087196395,-0.490964921282,-0.490964921282,-0.490964921282,-0.505842646169,-0.505842646169,-0.520720371057,-0.520720371057,-0.535598095944,-0.535598095944,-0.535598095944,-0.550475820831,-0.550475820831,-0.565353545719,-0.565353545719,-0.565353545719,-0.580231270606
0.0,0.0,0.0,0.0,0.0,0.0,0.0,0.0,0.0,0.0,0.0,0.0,0.0,0.0,0.0,0.0,0.0,0.0,0.0,0.0,0.0,0.0,0.0,0.0,0.0,0.0,0.0,0.0,0.0,0.0,0.0,0.0,0.0,0.0,0.0,0.0,0.0,0.0,0.0,0.0,0.0,0.0,0.0,0.0,0.0,0.0,0.0,0.0,0.0,0.0,0.0,0.0,0.0,0.0,0.0,0.0,0.0,0.0,0.0,0.0,0.0,0.0,0.0,0.0,0.0,0.0,0.0,0.0,0.0,0.0,0.0,0.0,0.0,0.0,0.0,0.0,0.0,0.0,0.0,0.0,0.0,0.0,0.0,0.0,0.0,0.0,0.0,0.0,0.0,0.0,0.0,0.0,0.0,0.0,0.0,0.0,0.0,0.0,0.0,0.0,0.0,0.0,0.0,0.0,0.0,0.0,0.0,0.0,0.0,0.0,0.0,0.0,0.0,0.0,0.0,0.0,0.0,0.0,0.0,0.0,0.0,0.0,0.0,0.0,0.0,0.0,0.0,0.0,0.0,0.0,0.0,0.0,0.0,0.0,0.0,2.51433550596,2.45482460641,2.38043598197,2.3506805322,2.3506805322,2.33580280731,2.33580280731,2.33580280731,2.32092508242,2.30604735754,2.30604735754,2.29116963265,2.27629190776,2.26141418287,2.24653645799,2.21678100821,2.20190328332,2.17214783355,2.15727010866,2.14239238378,2.12751465889,2.112636934,2.09775920911,2.08288148423,2.08288148423,2.06800375934,2.05312603445,2.03824830956,2.02337058468,2.02337058468,2.00849285979,1.9936151349,1.97873741001,1.94898196024,1.93410423535,1.91922651047,1.88947106069,1.8745933358,1.8745933358,1.85971561092,1.84483788603,1.82996016114,1.80020471137,1.78532698648,1.77044926159,1.77044926159,1.7555715367,1.74069381182,1.74069381182,1.72581608693,1.71093836204,1.69606063716,1.68118291227,1.65142746249,1.63654973761,1.62167201272,1.62167201272,1.60679428783,1.60679428783,1.59191656294,1.57703883806,1.56216111317,1.54728338828,1.53240566339,1.51752793851,1.51752793851,1.50265021362,1.48777248873,1.47289476385,1.47289476385,1.45801703896,1.44313931407,1.42826158918,1.4133838643,1.39850613941,1.39850613941,1.38362841452,1.36875068963,1.35387296475,1.33899523986,1.33899523986,1.32411751497,1.30923979008,1.2943620652,1.2943620652,1.27948434031,1.26460661542,1.24972889054,1.23485116565,1.21997344076,1.21997344076,1.20509571587,1.19021799099,1.19021799099,1.1753402661,1.1753402661,1.16046254121,1.14558481632,1.13070709144,1.11582936655,1.11582936655,1.10095164166,1.08607391678,1.07119619189,1.07119619189,1.056318467,1.04144074211,1.02656301723,1.01168529234,1.01168529234,0.996807567451,0.981929842564,0.981929842564,0.967052117676,0.952174392789,0.937296667902,0.937296667902,0.922418943014,0.907541218127,0.907541218127,0.89266349324,0.89266349324,0.877785768352,0.862908043465,0.862908043465,0.848030318578,0.83315259369,0.818274868803,0.803397143916,0.803397143916,0.788519419028,0.773641694141,0.773641694141,0.758763969254,0.758763969254,0.743886244366,0.743886244366,0.729008519479,0.729008519479,0.714130794592,0.699253069704,0.699253069704,0.684375344817,0.66949761993,0.654619895042,0.654619895042,0.639742170155,0.624864445268,0.624864445268,0.60998672038,0.60998672038,0.595108995493,0.595108995493,0.580231270606,0.565353545719,0.565353545719,0.550475820831,0.535598095944,0.535598095944,0.520720371057,0.520720371057,0.505842646169,0.505842646169,0.490964921282,0.490964921282,0.476087196395,0.461209471507,0.44633174662,0.44633174662,0.431454021733,0.431454021733,0.416576296845,0.416576296845,0.416576296845,0.401698571958,0.386820847071,0.386820847071,0.371943122183,0.371943122183,0.357065397296,0.357065397296,0.342187672409,0.342187672409,0.327309947521,0.327309947521,0.312432222634,0.297554497747,0.297554497747,0.282676772859,0.267799047972,0.267799047972,0.252921323085,0.252921323085,0.238043598197,0.238043598197,0.22316587331,0.22316587331,0.208288148423,0.208288148423,0.208288148423,0.193410423535,0.193410423535,0.178532698648,0.178532698648,0.163654973761,0.148777248873,0.148777248873,0.133899523986,0.133899523986,0.119021799099,0.119021799099,0.104144074211,0.104144074211,0.089266349324,0.089266349324,0.0743886244366,0.0595108995493,0.0595108995493,0.044633174662,0.044633174662,0.0297554497747,0.0297554497747,0.0148777248873,0.0148777248873,0.0,0.0,0.0,-0.0148777248873,-0.0148777248873,-0.0297554497747,-0.0297554497747,-0.044633174662,-0.044633174662,-0.0595108995493,-0.0595108995493,-0.0743886244366,-0.0743886244366,-0.089266349324,-0.089266349324,-0.104144074211,-0.104144074211,-0.104144074211,-0.119021799099,-0.119021799099,-0.133899523986,-0.133899523986,-0.148777248873,-0.148777248873,-0.163654973761,-0.163654973761,-0.163654973761,-0.178532698648,-0.178532698648,-0.193410423535,-0.193410423535,-0.208288148423,-0.208288148423,-0.22316587331,-0.22316587331,-0.238043598197,-0.238043598197,-0.238043598197,-0.252921323085,-0.252921323085,-0.267799047972,-0.267799047972,-0.282676772859,-0.282676772859,-0.297554497747,-0.297554497747,-0.312432222634,-0.312432222634,-0.312432222634,-0.327309947521,-0.327309947521,-0.327309947521,-0.342187672409,-0.342187672409,-0.357065397296,-0.357065397296,-0.371943122183,-0.371943122183,-0.371943122183,-0.386820847071,-0.386820847071,-0.401698571958,-0.401698571958,-0.416576296845,-0.416576296845,-0.416576296845,-0.431454021733,-0.431454021733,-0.44633174662,-0.44633174662,-0.44633174662,-0.461209471507,-0.461209471507,-0.461209471507,-0.476087196395,-0.476087196395,-0.490964921282,-0.490964921282,-0.490964921282,-0.505842646169,-0.505842646169,-0.520720371057,-0.520720371057,-0.520720371057,-0.535598095944,-0.535598095944,-0.550475820831,-0.550475820831,-0.565353545719,-0.565353545719,-0.565353545719,-0.580231270606
0.0,0.0,0.0,0.0,0.0,0.0,0.0,0.0,0.0,0.0,0.0,0.0,0.0,0.0,0.0,0.0,0.0,0.0,0.0,0.0,0.0,0.0,0.0,0.0,0.0,0.0,0.0,0.0,0.0,0.0,0.0,0.0,0.0,0.0,0.0,0.0,0.0,0.0,0.0,0.0,0.0,0.0,0.0,0.0,0.0,0.0,0.0,0.0,0.0,0.0,0.0,0.0,0.0,0.0,0.0,0.0,0.0,0.0,0.0,0.0,0.0,0.0,0.0,0.0,0.0,0.0,0.0,0.0,0.0,0.0,0.0,0.0,0.0,0.0,0.0,0.0,0.0,0.0,0.0,0.0,0.0,0.0,0.0,0.0,0.0,0.0,0.0,0.0,0.0,0.0,0.0,0.0,0.0,0.0,0.0,0.0,0.0,0.0,0.0,0.0,0.0,0.0,0.0,0.0,0.0,0.0,0.0,0.0,0.0,0.0,0.0,0.0,0.0,0.0,0.0,0.0,0.0,0.0,0.0,0.0,0.0,0.0,0.0,0.0,0.0,0.0,0.0,0.0,0.0,0.0,0.0,0.0,0.0,0.0,0.0,0.0,2.4697023313,2.39531370686,2.3506805322,2.3506805322,2.33580280731,2.33580280731,2.33580280731,2.32092508242,2.32092508242,2.30604735754,2.29116963265,2.29116963265,2.26141418287,2.24653645799,2.21678100821,2.20190328332,2.17214783355,2.15727010866,2.14239238378,2.12751465889,2.112636934,2.112636934,2.09775920911,2.08288148423,2.06800375934,2.05312603445,2.03824830956,2.02337058468,2.02337058468,2.00849285979,1.9936151349,1.97873741001,1.96385968513,1.93410423535,1.91922651047,1.90434878558,1.88947106069,1.8745933358,1.85971561092,1.84483788603,1.82996016114,1.81508243625,1.80020471137,1.78532698648,1.77044926159,1.7555715367,1.7555715367,1.74069381182,1.72581608693,1.71093836204,1.69606063716,1.68118291227,1.65142746249,1.63654973761,1.62167201272,1.62167201272,1.60679428783,1.60679428783,1.59191656294,1.59191656294,1.57703883806,1.54728338828,1.53240566339,1.53240566339,1.51752793851,1.50265021362,1.50265021362,1.48777248873,1.47289476385,1.45801703896,1.44313931407,1.42826158918,1.4133838643,1.4133838643,1.39850613941,1.38362841452,1.36875068963,1.35387296475,1.35387296475,1.33899523986,1.32411751497,1.32411751497,1.30923979008,1.2943620652,1.27948434031,1.26460661542,1.24972889054,1.23485116565,1.23485116565,1.21997344076,1.20509571587,1.19021799099,1.19021799099,1.1753402661,1.1753402661,1.16046254121,1.14558481632,1.13070709144,1.13070709144,1.11582936655,1.10095164166,1.08607391678,1.08607391678,1.07119619189,1.056318467,1.04144074211,1.02656301723,1.02656301723,1.01168529234,0.996807567451,0.981929842564,0.981929842564,0.967052117676,0.952174392789,0.952174392789,0.937296667902,0.922418943014,0.922418943014,0.907541218127,0.89266349324,0.89266349324,0.877785768352,0.877785768352,0.862908043465,0.848030318578,0.83315259369,0.818274868803,0.803397143916,0.803397143916,0.788519419028,0.773641694141,0.773641694141,0.758763969254,0.758763969254,0.743886244366,0.743886244366,0.729008519479,0.729008519479,0.714130794592,0.699253069704,0.699253069704,0.684375344817,0.66949761993,0.66949761993,0.654619895042,0.639742170155,0.639742170155,0.624864445268,0.624864445268,0.60998672038,0.595108995493,0.595108995493,0.580231270606,0.565353545719,0.565353545719,0.550475820831,0.535598095944,0.535598095944,0.520720371057,0.520720371057,0.505842646169,0.505842646169,0.490964921282,0.490964921282,0.476087196395,0.461209471507,0.461209471507,0.44633174662,0.431454021733,0.431454021733,0.416576296845,0.416576296845,0.416576296845,0.401698571958,0.401698571958,0.386820847071,0.371943122183,0.371943122183,0.357065397296,0.357065397296,0.342187672409,0.342187672409,0.327309947521,0.327309947521,0.312432222634,0.297554497747,0.297554497747,0.282676772859,0.267799047972,0.267799047972,0.252921323085,0.252921323085,0.238043598197,0.238043598197,0.22316587331,0.22316587331,0.208288148423,0.208288148423,0.208288148423,0.193410423535,0.193410423535,0.178532698648,0.178532698648,0.163654973761,0.148777248873,0.148777248873,0.133899523986,0.133899523986,0.119021799099,0.119021799099,0.104144074211,0.104144074211,0.089266349324,0.089266349324,0.0743886244366,0.0743886244366,0.0595108995493,0.0595108995493,0.044633174662,0.0297554497747,0.0297554497747,0.0148777248873,0.0148777248873,0.0148777248873,0.0,0.0,-0.0148777248873,-0.0148777248873,-0.0297554497747,-0.0297554497747,-0.044633174662,-0.044633174662,-0.0595108995493,-0.0595108995493,-0.0743886244366,-0.0743886244366,-0.089266349324,-0.089266349324,-0.089266349324,-0.104144074211,-0.104144074211,-0.119021799099,-0.119021799099,-0.133899523986,-0.133899523986,-0.148777248873,-0.148777248873,-0.148777248873,-0.163654973761,-0.163654973761,-0.178532698648,-0.178532698648,-0.193410423535,-0.193410423535,-0.208288148423,-0.208288148423,-0.22316587331,-0.22316587331,-0.238043598197,-0.238043598197,-0.238043598197,-0.252921323085,-0.252921323085,-0.267799047972,-0.267799047972,-0.282676772859,-0.282676772859,-0.297554497747,-0.297554497747,-0.297554497747,-0.312432222634,-0.312432222634,-0.327309947521,-0.327309947521,-0.327309947521,-0.342187672409,-0.342187672409,-0.357065397296,-0.357065397296,-0.357065397296,-0.371943122183,-0.371943122183,-0.386820847071,-0.386820847071,-0.401698571958,-0.401698571958,-0.416576296845,-0.416576296845,-0.416576296845,-0.431454021733,-0.431454021733,-0.431454021733,-0.44633174662,-0.44633174662,-0.461209471507,-0.461209471507,-0.461209471507,-0.476087196395,-0.476087196395,-0.476087196395,-0.490964921282,-0.490964921282,-0.505842646169,-0.505842646169,-0.520720371057,-0.520720371057,-0.520720371057,-0.535598095944,-0.535598095944,-0.550475820831,-0.550475820831,-0.550475820831,-0.565353545719,-0.565353545719,-0.580231270606
0.0,0.0,0.0,0.0,0.0,0.0,0.0,0.0,0.0,0.0,0.0,0.0,0.0,0.0,0.0,0.0,0.0,0.0,0.0,0.0,0.0,0.0,0.0,0.0,0.0,0.0,0.0,0.0,0.0,0.0,0.0,0.0,0.0,0.0,0.0,0.0,0.0,0.0,0.0,0.0,0.0,0.0,0.0,0.0,0.0,0.0,0.0,0.0,0.0,0.0,0.0,0.0,0.0,0.0,0.0,0.0,0.0,0.0,0.0,0.0,0.0,0.0,0.0,0.0,0.0,0.0,0.0,0.0,0.0,0.0,0.0,0.0,0.0,0.0,0.0,0.0,0.0,0.0,0.0,0.0,0.0,0.0,0.0,0.0,0.0,0.0,0.0,0.0,0.0,0.0,0.0,0.0,0.0,0.0,0.0,0.0,0.0,0.0,0.0,0.0,0.0,0.0,0.0,0.0,0.0,0.0,0.0,0.0,0.0,0.0,0.0,0.0,0.0,0.0,0.0,0.0,0.0,0.0,0.0,0.0,0.0,0.0,0.0,0.0,0.0,0.0,0.0,0.0,0.0,0.0,0.0,0.0,0.0,0.0,0.0,0.0,0.0,0.0,2.3506805322,2.3506805322,2.33580280731,2.33580280731,2.33580280731,2.32092508242,2.32092508242,2.32092508242,2.30604735754,2.29116963265,2.27629190776,2.24653645799,2.2316587331,2.20190328332,2.18702555844,2.15727010866,2.14239238378,2.12751465889,2.12751465889,2.112636934,2.09775920911,2.08288148423,2.06800375934,2.05312603445,2.03824830956,2.02337058468,2.02337058468,2.00849285979,1.9936151349,1.97873741001,1.96385968513,1.94898196024,1.91922651047,1.90434878558,1.88947106069,1.8745933358,1.85971561092,1.84483788603,1.82996016114,1.81508243625,1.80020471137,1.78532698648,1.77044926159,1.77044926159,1.7555715367,1.74069381182,1.74069381182,1.72581608693,1.69606063716,1.68118291227,1.66630518738,1.63654973761,1.63654973761,1.62167201272,1.62167201272,1.60679428783,1.59191656294,1.59191656294,1.57703883806,1.56216111317,1.54728338828,1.53240566339,1.51752793851,1.51752793851,1.50265021362,1.48777248873,1.47289476385,1.45801703896,1.44313931407,1.42826158918,1.42826158918,1.4133838643,1.39850613941,1.38362841452,1.36875068963,1.36875068963,1.35387296475,1.33899523986,1.33899523986,1.32411751497,1.30923979008,1.2943620652,1.27948434031,1.26460661542,1.24972889054,1.24972889054,1.23485116565,1.21997344076,1.20509571587,1.19021799099,1.19021799099,1.1753402661,1.1753402661,1.16046254121,1.14558481632,1.14558481632,1.13070709144,1.11582936655,1.10095164166,1.08607391678,1.08607391678,1.07119619189,1.056318467,1.04144074211,1.02656301723,1.02656301723,1.01168529234,0.996807567451,0.981929842564,0.981929842564,0.967052117676,0.952174392789,0.952174392789,0.937296667902,0.922418943014,0.922418943014,0.907541218127,0.907541218127,0.89266349324,0.877785768352,0.877785768352,0.862908043465,0.848030318578,0.83315259369,0.83315259369,0.818274868803,0.803397143916,0.788519419028,0.773641694141,0.773641694141,0.758763969254,0.758763969254,0.743886244366,0.743886244366,0.729008519479,0.729008519479,0.714130794592,0.714130794592,0.699253069704,0.684375344817,0.66949761993,0.66949761993,0.654619895042,0.639742170155,0.639742170155,0.624864445268,0.624864445268,0.60998672038,0.595108995493,0.595108995493,0.580231270606,0.580231270606,0.565353545719,0.550475820831,0.550475820831,0.535598095944,0.520720371057,0.520720371057,0.505842646169,0.505842646169,0.490964921282,0.490964921282,0.476087196395,0.461209471507,0.461209471507,0.44633174662,0.44633174662,0.431454021733,0.431454021733,0.416576296845,0.416576296845,0.401698571958,0.401698571958,0.386820847071,0.386820847071,0.371943122183,0.357065397296,0.357065397296,0.342187672409,0.342187672409,0.327309947521,0.327309947521,0.312432222634,0.312432222634,0.297554497747,0.282676772859,0.267799047972,0.267799047972,0.252921323085,0.252921323085,0.238043598197,0.238043598197,0.22316587331,0.22316587331,0.22316587331,0.208288148423,0.208288148423,0.193410423535,0.193410423535,0.178532698648,0.178532698648,0.163654973761,0.148777248873,0.148777248873,0.133899523986,0.133899523986,0.119021799099,0.119021799099,0.104144074211,0.104144074211,0.089266349324,0.089266349324,0.0743886244366,0.0743886244366,0.0595108995493,0.0595108995493,0.044633174662,0.044633174662,0.0297554497747,0.0297554497747,0.0148777248873,0.0148777248873,0.0,0.0,-0.0148777248873,-0.0148777248873,-0.0297554497747,-0.0297554497747,-0.0297554497747,-0.044633174662,-0.044633174662,-0.0595108995493,-0.0595108995493,-0.0743886244366,-0.0743886244366,-0.089266349324,-0.089266349324,-0.104144074211,-0.104144074211,-0.119021799099,-0.119021799099,-0.133899523986,-0.133899523986,-0.133899523986,-0.148777248873,-0.148777248873,-0.163654973761,-0.163654973761,-0.178532698648,-0.178532698648,-0.193410423535,-0.193410423535,-0.208288148423,-0.208288148423,-0.22316587331,-0.22316587331,-0.22316587331,-0.238043598197,-0.238043598197,-0.252921323085,-0.252921323085,-0.267799047972,-0.267799047972,-0.282676772859,-0.282676772859,-0.282676772859,-0.297554497747,-0.297554497747,-0.312432222634,-0.312432222634,-0.312432222634,-0.327309947521,-0.327309947521,-0.342187672409,-0.342187672409,-0.342187672409,-0.357065397296,-0.357065397296,-0.371943122183,-0.371943122183,-0.386820847071,-0.386820847071,-0.401698571958,-0.401698571958,-0.416576296845,-0.416576296845,-0.416576296845,-0.431454021733,-0.431454021733,-0.431454021733,-0.44633174662,-0.44633174662,-0.461209471507,-0.461209471507,-0.461209471507,-0.476087196395,-0.476087196395,-0.476087196395,-0.490964921282,-0.490964921282,-0.505842646169,-0.505842646169,-0.520720371057,-0.520720371057,-0.520720371057,-0.535598095944,-0.535598095944,-0.550475820831,-0.550475820831,-0.550475820831,-0.565353545719,-0.565353545719,-0.565353545719
0.0,0.0,0.0,0.0,0.0,0.0,0.0,0.0,0.0,0.0,0.0,0.0,0.0,0.0,0.0,0.0,0.0,0.0,0.0,0.0,0.0,0.0,0.0,0.0,0.0,0.0,0.0,0.0,0.0,0.0,0.0,0.0,0.0,0.0,0.0,0.0,0.0,0.0,0.0,0.0,0.0,0.0,0.0,0.0,0.0,0.0,0.0,0.0,0.0,0.0,0.0,0.0,0.0,0.0,0.0,0.0,0.0,0.0,0.0,0.0,0.0,0.0,0.0,0.0,0.0,0.0,0.0,0.0,0.0,0.0,0.0,0.0,0.0,0.0,0.0,0.0,0.0,0.0,0.0,0.0,0.0,0.0,0.0,0.0,0.0,0.0,0.0,0.0,0.0,0.0,0.0,0.0,0.0,0.0,0.0,0.0,0.0,0.0,0.0,0.0,0.0,0.0,0.0,0.0,0.0,0.0,0.0,0.0,0.0,0.0,0.0,0.0,0.0,0.0,0.0,0.0,0.0,0.0,0.0,0.0,0.0,0.0,0.0,0.0,0.0,0.0,0.0,0.0,0.0,0.0,0.0,0.0,0.0,0.0,0.0,0.0,0.0,0.0,0.0,2.3506805322,2.33580280731,2.33580280731,2.33580280731,2.32092508242,2.32092508242,2.32092508242,2.32092508242,2.30604735754,2.29116963265,2.26141418287,2.2316587331,2.21678100821,2.18702555844,2.17214783355,2.15727010866,2.14239238378,2.12751465889,2.112636934,2.112636934,2.09775920911,2.08288148423,2.06800375934,2.05312603445,2.03824830956,2.02337058468,2.00849285979,1.9936151349,1.97873741001,1.96385968513,1.94898196024,1.93410423535,1.91922651047,1.88947106069,1.8745933358,1.85971561092,1.84483788603,1.82996016114,1.81508243625,1.80020471137,1.78532698648,1.78532698648,1.77044926159,1.7555715367,1.7555715367,1.74069381182,1.72581608693,1.71093836204,1.68118291227,1.66630518738,1.65142746249,1.63654973761,1.62167201272,1.62167201272,1.60679428783,1.60679428783,1.59191656294,1.57703883806,1.56216111317,1.54728338828,1.53240566339,1.53240566339,1.51752793851,1.50265021362,1.48777248873,1.47289476385,1.45801703896,1.44313931407,1.44313931407,1.42826158918,1.4133838643,1.39850613941,1.38362841452,1.38362841452,1.36875068963,1.35387296475,1.33899523986,1.33899523986,1.32411751497,1.30923979008,1.2943620652,1.2943620652,1.27948434031,1.26460661542,1.24972889054,1.23485116565,1.21997344076,1.20509571587,1.20509571587,1.19021799099,1.1753402661,1.1753402661,1.16046254121,1.16046254121,1.14558481632,1.13070709144,1.11582936655,1.10095164166,1.10095164166,1.08607391678,1.07119619189,1.056318467,1.04144074211,1.04144074211,1.02656301723,1.01168529234,0.996807567451,0.996807567451,0.981929842564,0.967052117676,0.952174392789,0.952174392789,0.937296667902,0.922418943014,0.922418943014,0.907541218127,0.907541218127,0.89266349324,0.89266349324,0.877785768352,0.862908043465,0.848030318578,0.848030318578,0.83315259369,0.818274868803,0.803397143916,0.788519419028,0.788519419028,0.773641694141,0.758763969254,0.758763969254,0.743886244366,0.743886244366,0.729008519479,0.729008519479,0.714130794592,0.714130794592,0.699253069704,0.684375344817,0.684375344817,0.66949761993,0.654619895042,0.639742170155,0.639742170155,0.624864445268,0.624864445268,0.60998672038,0.60998672038,0.595108995493,0.580231270606,0.580231270606,0.565353545719,0.550475820831,0.550475820831,0.535598095944,0.535598095944,0.520720371057,0.505842646169,0.505842646169,0.490964921282,0.490964921282,0.476087196395,0.476087196395,0.461209471507,0.44633174662,0.44633174662,0.431454021733,0.431454021733,0.416576296845,0.416576296845,0.401698571958,0.401698571958,0.386820847071,0.386820847071,0.371943122183,0.371943122183,0.357065397296,0.342187672409,0.342187672409,0.342187672409,0.327309947521,0.312432222634,0.312432222634,0.297554497747,0.282676772859,0.282676772859,0.267799047972,0.252921323085,0.252921323085,0.238043598197,0.238043598197,0.238043598197,0.22316587331,0.22316587331,0.208288148423,0.208288148423,0.193410423535,0.193410423535,0.178532698648,0.178532698648,0.163654973761,0.163654973761,0.148777248873,0.133899523986,0.133899523986,0.133899523986,0.119021799099,0.119021799099,0.104144074211,0.104144074211,0.089266349324,0.0743886244366,0.0743886244366,0.0595108995493,0.0595108995493,0.044633174662,0.044633174662,0.0297554497747,0.0297554497747,0.0148777248873,0.0148777248873,0.0,0.0,-0.0148777248873,-0.0148777248873,-0.0148777248873,-0.0297554497747,-0.0297554497747,-0.044633174662,-0.044633174662,-0.0595108995493,-0.0595108995493,-0.0743886244366,-0.0743886244366,-0.089266349324,-0.089266349324,-0.104144074211,-0.104144074211,-0.119021799099,-0.119021799099,-0.133899523986,-0.133899523986,-0.133899523986,-0.148777248873,-0.148777248873,-0.163654973761,-0.163654973761,-0.178532698648,-0.178532698648,-0.193410423535,-0.193410423535,-0.208288148423,-0.208288148423,-0.22316587331,-0.22316587331,-0.22316587331,-0.238043598197,-0.238043598197,-0.252921323085,-0.252921323085,-0.267799047972,-0.267799047972,-0.267799047972,-0.282676772859,-0.282676772859,-0.297554497747,-0.297554497747,-0.312432222634,-0.312432222634,-0.312432222634,-0.327309947521,-0.327309947521,-0.342187672409,-0.342187672409,-0.342187672409,-0.357065397296,-0.357065397296,-0.371943122183,-0.371943122183,-0.386820847071,-0.386820847071,-0.401698571958,-0.401698571958,-0.401698571958,-0.416576296845,-0.416576296845,-0.431454021733,-0.431454021733,-0.431454021733,-0.44633174662,-0.44633174662,-0.461209471507,-0.461209471507,-0.461209471507,-0.476087196395,-0.476087196395,-0.476087196395,-0.490964921282,-0.490964921282,-0.505842646169,-0.505842646169,-0.520720371057,-0.520720371057,-0.520720371057,-0.535598095944,-0.535598095944,-0.535598095944,-0.550475820831,-0.550475820831,-0.565353545719,-0.565353545719,-0.565353545719
0.0,0.0,0.0,0.0,0.0,0.0,0.0,0.0,0.0,0.0,0.0,0.0,0.0,0.0,0.0,0.0,0.0,0.0,0.0,0.0,0.0,0.0,0.0,0.0,0.0,0.0,0.0,0.0,0.0,0.0,0.0,0.0,0.0,0.0,0.0,0.0,0.0,0.0,0.0,0.0,0.0,0.0,0.0,0.0,0.0,0.0,0.0,0.0,0.0,0.0,0.0,0.0,0.0,0.0,0.0,0.0,0.0,0.0,0.0,0.0,0.0,0.0,0.0,0.0,0.0,0.0,0.0,0.0,0.0,0.0,0.0,0.0,0.0,0.0,0.0,0.0,0.0,0.0,0.0,0.0,0.0,0.0,0.0,0.0,0.0,0.0,0.0,0.0,0.0,0.0,0.0,0.0,0.0,0.0,0.0,0.0,0.0,0.0,0.0,0.0,0.0,0.0,0.0,0.0,0.0,0.0,0.0,0.0,0.0,0.0,0.0,0.0,0.0,0.0,0.0,0.0,0.0,0.0,0.0,0.0,0.0,0.0,0.0,0.0,0.0,0.0,0.0,0.0,0.0,0.0,0.0,0.0,0.0,0.0,0.0,0.0,0.0,0.0,0.0,0.0,0.0,0.0,0.0,2.32092508242,2.32092508242,2.33580280731,2.33580280731,2.32092508242,2.30604735754,2.27629190776,2.2316587331,2.21678100821,2.20190328332,2.17214783355,2.15727010866,2.14239238378,2.14239238378,2.12751465889,2.112636934,2.09775920911,2.08288148423,2.06800375934,2.05312603445,2.03824830956,2.02337058468,2.00849285979,2.00849285979,1.9936151349,1.97873741001,1.94898196024,1.93410423535,1.91922651047,1.90434878558,1.88947106069,1.8745933358,1.84483788603,1.82996016114,1.81508243625,1.80020471137,1.80020471137,1.78532698648,1.77044926159,1.77044926159,1.7555715367,1.74069381182,1.72581608693,1.71093836204,1.68118291227,1.66630518738,1.65142746249,1.63654973761,1.62167201272,1.62167201272,1.60679428783,1.60679428783,1.59191656294,1.57703883806,1.56216111317,1.54728338828,1.54728338828,1.53240566339,1.51752793851,1.50265021362,1.48777248873,1.47289476385,1.45801703896,1.44313931407,1.44313931407,1.42826158918,1.4133838643,1.39850613941,1.39850613941,1.38362841452,1.36875068963,1.35387296475,1.35387296475,1.33899523986,1.32411751497,1.32411751497,1.30923979008,1.2943620652,1.27948434031,1.26460661542,1.24972889054,1.23485116565,1.21997344076,1.20509571587,1.20509571587,1.19021799099,1.19021799099,1.1753402661,1.1753402661,1.16046254121,1.14558481632,1.13070709144,1.11582936655,1.11582936655,1.10095164166,1.08607391678,1.07119619189,1.056318467,1.056318467,1.04144074211,1.02656301723,1.01168529234,0.996807567451,0.996807567451,0.981929842564,0.967052117676,0.967052117676,0.952174392789,0.937296667902,0.922418943014,0.922418943014,0.907541218127,0.907541218127,0.89266349324,0.89266349324,0.877785768352,0.862908043465,0.862908043465,0.848030318578,0.83315259369,0.818274868803,0.803397143916,0.788519419028,0.788519419028,0.773641694141,0.773641694141,0.758763969254,0.758763969254,0.743886244366,0.743886244366,0.729008519479,0.714130794592,0.714130794592,0.699253069704,0.684375344817,0.684375344817,0.66949761993,0.654619895042,0.654619895042,0.639742170155,0.624864445268,0.624864445268,0.60998672038,0.60998672038,0.595108995493,0.580231270606,0.580231270606,0.565353545719,0.565353545719,0.550475820831,0.535598095944,0.535598095944,0.520720371057,0.520720371057,0.505842646169,0.505842646169,0.490964921282,0.476087196395,0.476087196395,0.461209471507,0.44633174662,0.44633174662,0.431454021733,0.431454021733,0.416576296845,0.416576296845,0.401698571958,0.401698571958,0.386820847071,0.386820847071,0.371943122183,0.371943122183,0.357065397296,0.357065397296,0.342187672409,0.342187672409,0.327309947521,0.327309947521,0.312432222634,0.297554497747,0.282676772859,0.282676772859,0.267799047972,0.252921323085,0.252921323085,0.252921323085,0.238043598197,0.238043598197,0.22316587331,0.22316587331,0.208288148423,0.208288148423,0.208288148423,0.193410423535,0.178532698648,0.178532698648,0.163654973761,0.163654973761,0.148777248873,0.148777248873,0.133899523986,0.133899523986,0.119021799099,0.119021799099,0.104144074211,0.104144074211,0.089266349324,0.089266349324,0.0743886244366,0.0595108995493,0.0595108995493,0.0595108995493,0.044633174662,0.0297554497747,0.0297554497747,0.0148777248873,0.0148777248873,0.0,0.0,-0.0148777248873,-0.0148777248873,-0.0148777248873,-0.0297554497747,-0.0297554497747,-0.044633174662,-0.044633174662,-0.0595108995493,-0.0595108995493,-0.0743886244366,-0.0743886244366,-0.089266349324,-0.089266349324,-0.104144074211,-0.104144074211,-0.119021799099,-0.119021799099,-0.133899523986,-0.133899523986,-0.133899523986,-0.148777248873,-0.148777248873,-0.163654973761,-0.163654973761,-0.163654973761,-0.178532698648,-0.178532698648,-0.193410423535,-0.193410423535,-0.208288148423,-0.208288148423,-0.22316587331,-0.22316587331,-0.238043598197,-0.238043598197,-0.252921323085,-0.252921323085,-0.267799047972,-0.267799047972,-0.267799047972,-0.282676772859,-0.282676772859,-0.297554497747,-0.297554497747,-0.297554497747,-0.312432222634,-0.312432222634,-0.327309947521,-0.327309947521,-0.327309947521,-0.342187672409,-0.342187672409,-0.357065397296,-0.357065397296,-0.371943122183,-0.371943122183,-0.386820847071,-0.386820847071,-0.401698571958,-0.401698571958,-0.401698571958,-0.416576296845,-0.416576296845,-0.431454021733,-0.431454021733,-0.431454021733,-0.44633174662,-0.44633174662,-0.44633174662,-0.461209471507,-0.461209471507,-0.476087196395,-0.476087196395,-0.476087196395,-0.490964921282,-0.490964921282,-0.505842646169,-0.505842646169,-0.505842646169,-0.520720371057,-0.520720371057,-0.535598095944,-0.535598095944,-0.535598095944,-0.550475820831,-0.550475820831,-0.565353545719,-0.565353545719,-0.565353545719
0.0,0.0,0.0,0.0,0.0,0.0,0.0,0.0,0.0,0.0,0.0,0.0,0.0,0.0,0.0,0.0,0.0,0.0,0.0,0.0,0.0,0.0,0.0,0.0,0.0,0.0,0.0,0.0,0.0,0.0,0.0,0.0,0.0,0.0,0.0,0.0,0.0,0.0,0.0,0.0,0.0,0.0,0.0,0.0,0.0,0.0,0.0,0.0,0.0,0.0,0.0,0.0,0.0,0.0,0.0,0.0,0.0,0.0,0.0,0.0,0.0,0.0,0.0,0.0,0.0,0.0,0.0,0.0,0.0,0.0,0.0,0.0,0.0,0.0,0.0,0.0,0.0,0.0,0.0,0.0,0.0,0.0,0.0,0.0,0.0,0.0,0.0,0.0,0.0,0.0,0.0,0.0,0.0,0.0,0.0,0.0,0.0,0.0,0.0,0.0,0.0,0.0,0.0,0.0,0.0,0.0,0.0,0.0,0.0,0.0,0.0,0.0,0.0,0.0,0.0,0.0,0.0,0.0,0.0,0.0,0.0,0.0,0.0,0.0,0.0,0.0,0.0,0.0,0.0,0.0,0.0,0.0,0.0,0.0,0.0,0.0,0.0,0.0,0.0,0.0,0.0,0.0,0.0,0.0,0.0,0.0,2.33580280731,2.33580280731,2.30604735754,2.27629190776,2.24653645799,2.21678100821,2.20190328332,2.18702555844,2.17214783355,2.15727010866,2.14239238378,2.12751465889,2.12751465889,2.112636934,2.09775920911,2.06800375934,2.05312603445,2.03824830956,2.02337058468,2.02337058468,2.00849285979,1.9936151349,1.97873741001,1.96385968513,1.94898196024,1.91922651047,1.90434878558,1.88947106069,1.8745933358,1.85971561092,1.84483788603,1.81508243625,1.81508243625,1.80020471137,1.78532698648,1.78532698648,1.77044926159,1.7555715367,1.74069381182,1.72581608693,1.71093836204,1.68118291227,1.66630518738,1.65142746249,1.63654973761,1.63654973761,1.62167201272,1.62167201272,1.60679428783,1.59191656294,1.59191656294,1.57703883806,1.56216111317,1.54728338828,1.53240566339,1.51752793851,1.50265021362,1.48777248873,1.47289476385,1.45801703896,1.44313931407,1.44313931407,1.42826158918,1.4133838643,1.4133838643,1.39850613941,1.38362841452,1.36875068963,1.36875068963,1.35387296475,1.33899523986,1.32411751497,1.32411751497,1.30923979008,1.2943620652,1.27948434031,1.26460661542,1.24972889054,1.23485116565,1.21997344076,1.20509571587,1.20509571587,1.19021799099,1.19021799099,1.1753402661,1.1753402661,1.16046254121,1.14558481632,1.14558481632,1.13070709144,1.11582936655,1.10095164166,1.08607391678,1.07119619189,1.07119619189,1.056318467,1.04144074211,1.02656301723,1.01168529234,1.01168529234,0.996807567451,0.981929842564,0.967052117676,0.967052117676,0.952174392789,0.937296667902,0.922418943014,0.922418943014,0.907541218127,0.907541218127,0.89266349324,0.89266349324,0.877785768352,0.877785768352,0.862908043465,0.848030318578,0.83315259369,0.818274868803,0.818274868803,0.803397143916,0.788519419028,0.788519419028,0.773641694141,0.758763969254,0.758763969254,0.743886244366,0.743886244366,0.729008519479,0.729008519479,0.714130794592,0.699253069704,0.684375344817,0.684375344817,0.66949761993,0.654619895042,0.654619895042,0.639742170155,0.624864445268,0.624864445268,0.60998672038,0.60998672038,0.595108995493,0.595108995493,0.580231270606,0.565353545719,0.565353545719,0.550475820831,0.535598095944,0.535598095944,0.520720371057,0.520720371057,0.505842646169,0.505842646169,0.490964921282,0.476087196395,0.476087196395,0.461209471507,0.461209471507,0.44633174662,0.44633174662,0.431454021733,0.431454021733,0.416576296845,0.416576296845,0.401698571958,0.401698571958,0.386820847071,0.371943122183,0.371943122183,0.357065397296,0.357065397296,0.342187672409,0.342187672409,0.327309947521,0.327309947521,0.312432222634,0.297554497747,0.282676772859,0.282676772859,0.267799047972,0.267799047972,0.252921323085,0.252921323085,0.238043598197,0.238043598197,0.22316587331,0.22316587331,0.22316587331,0.208288148423,0.208288148423,0.193410423535,0.193410423535,0.178532698648,0.163654973761,0.163654973761,0.148777248873,0.148777248873,0.133899523986,0.133899523986,0.119021799099,0.119021799099,0.104144074211,0.104144074211,0.089266349324,0.089266349324,0.0743886244366,0.0743886244366,0.0595108995493,0.0595108995493,0.044633174662,0.044633174662,0.0297554497747,0.0148777248873,0.0148777248873,0.0,0.0,-0.0148777248873,-0.0148777248873,-0.0148777248873,-0.0297554497747,-0.0297554497747,-0.044633174662,-0.044633174662,-0.0595108995493,-0.0595108995493,-0.0743886244366,-0.0743886244366,-0.089266349324,-0.089266349324,-0.104144074211,-0.104144074211,-0.119021799099,-0.119021799099,-0.119021799099,-0.133899523986,-0.133899523986,-0.148777248873,-0.148777248873,-0.148777248873,-0.163654973761,-0.163654973761,-0.178532698648,-0.178532698648,-0.193410423535,-0.193410423535,-0.208288148423,-0.208288148423,-0.22316587331,-0.22316587331,-0.238043598197,-0.238043598197,-0.252921323085,-0.252921323085,-0.252921323085,-0.267799047972,-0.267799047972,-0.282676772859,-0.282676772859,-0.297554497747,-0.297554497747,-0.297554497747,-0.312432222634,-0.312432222634,-0.327309947521,-0.327309947521,-0.327309947521,-0.342187672409,-0.342187672409,-0.357065397296,-0.357065397296,-0.371943122183,-0.371943122183,-0.371943122183,-0.386820847071,-0.401698571958,-0.401698571958,-0.401698571958,-0.416576296845,-0.416576296845,-0.416576296845,-0.431454021733,-0.431454021733,-0.44633174662,-0.44633174662,-0.44633174662,-0.461209471507,-0.461209471507,-0.476087196395,-0.476087196395,-0.490964921282,-0.490964921282,-0.490964921282,-0.505842646169,-0.505842646169,-0.505842646169,-0.520720371057,-0.520720371057,-0.535598095944,-0.535598095944,-0.535598095944,-0.550475820831,-0.550475820831,-0.565353545719,-0.565353545719,-0.565353545719
0.0,0.0,0.0,0.0,0.0,0.0,0.0,0.0,0.0,0.0,0.0,0.0,0.0,0.0,0.0,0.0,0.0,0.0,0.0,0.0,0.0,0.0,0.0,0.0,0.0,0.0,0.0,0.0,0.0,0.0,0.0,0.0,0.0,0.0,0.0,0.0,0.0,0.0,0.0,0.0,0.0,0.0,0.0,0.0,0.0,0.0,0.0,0.0,0.0,0.0,0.0,0.0,0.0,0.0,0.0,0.0,0.0,0.0,0.0,0.0,0.0,0.0,0.0,0.0,0.0,0.0,0.0,0.0,0.0,0.0,0.0,0.0,0.0,0.0,0.0,0.0,0.0,0.0,0.0,0.0,0.0,0.0,0.0,0.0,0.0,0.0,0.0,0.0,0.0,0.0,0.0,0.0,0.0,0.0,0.0,0.0,0.0,0.0,0.0,0.0,0.0,0.0,0.0,0.0,0.0,0.0,0.0,0.0,0.0,0.0,0.0,0.0,0.0,0.0,0.0,0.0,0.0,0.0,0.0,0.0,0.0,0.0,0.0,0.0,0.0,0.0,0.0,0.0,0.0,0.0,0.0,0.0,0.0,0.0,0.0,0.0,0.0,0.0,0.0,0.0,0.0,0.0,0.0,0.0,0.0,0.0,2.33580280731,2.33580280731,2.30604735754,2.27629190776,2.24653645799,2.21678100821,2.20190328332,2.18702555844,2.18702555844,2.17214783355,2.15727010866,2.14239238378,2.12751465889,2.112636934,2.09775920911,2.08288148423,2.06800375934,2.05312603445,2.03824830956,2.02337058468,2.00849285979,2.00849285979,1.9936151349,1.97873741001,1.94898196024,1.93410423535,1.90434878558,1.88947106069,1.8745933358,1.85971561092,1.84483788603,1.82996016114,1.81508243625,1.80020471137,1.80020471137,1.78532698648,1.77044926159,1.7555715367,1.74069381182,1.72581608693,1.71093836204,1.68118291227,1.66630518738,1.65142746249,1.63654973761,1.63654973761,1.62167201272,1.62167201272,1.60679428783,1.60679428783,1.59191656294,1.57703883806,1.56216111317,1.54728338828,1.53240566339,1.51752793851,1.50265021362,1.48777248873,1.47289476385,1.45801703896,1.44313931407,1.44313931407,1.42826158918,1.4133838643,1.4133838643,1.39850613941,1.38362841452,1.36875068963,1.36875068963,1.35387296475,1.33899523986,1.33899523986,1.32411751497,1.30923979008,1.2943620652,1.27948434031,1.26460661542,1.24972889054,1.23485116565,1.21997344076,1.20509571587,1.20509571587,1.19021799099,1.19021799099,1.1753402661,1.1753402661,1.16046254121,1.16046254121,1.14558481632,1.13070709144,1.11582936655,1.10095164166,1.08607391678,1.08607391678,1.07119619189,1.056318467,1.04144074211,1.02656301723,1.02656301723,1.01168529234,0.996807567451,0.981929842564,0.981929842564,0.967052117676,0.952174392789,0.937296667902,0.922418943014,0.922418943014,0.922418943014,0.907541218127,0.907541218127,0.89266349324,0.877785768352,0.877785768352,0.862908043465,0.848030318578,0.83315259369,0.83315259369,0.818274868803,0.803397143916,0.788519419028,0.788519419028,0.773641694141,0.773641694141,0.758763969254,0.758763969254,0.743886244366,0.729008519479,0.729008519479,0.714130794592,0.699253069704,0.699253069704,0.684375344817,0.66949761993,0.654619895042,0.654619895042,0.639742170155,0.624864445268,0.624864445268,0.60998672038,0.60998672038,0.595108995493,0.595108995493,0.580231270606,0.565353545719,0.565353545719,0.550475820831,0.550475820831,0.535598095944,0.520720371057,0.520720371057,0.505842646169,0.505842646169,0.490964921282,0.490964921282,0.476087196395,0.461209471507,0.461209471507,0.44633174662,0.44633174662,0.431454021733,0.431454021733,0.416576296845,0.416576296845,0.401698571958,0.401698571958,0.386820847071,0.371943122183,0.371943122183,0.357065397296,0.357065397296,0.342187672409,0.342187672409,0.327309947521,0.327309947521,0.312432222634,0.297554497747,0.297554497747,0.282676772859,0.267799047972,0.267799047972,0.252921323085,0.252921323085,0.238043598197,0.238043598197,0.22316587331,0.22316587331,0.22316587331,0.208288148423,0.208288148423,0.193410423535,0.193410423535,0.178532698648,0.163654973761,0.163654973761,0.148777248873,0.148777248873,0.133899523986,0.133899523986,0.119021799099,0.119021799099,0.104144074211,0.104144074211,0.089266349324,0.089266349324,0.0743886244366,0.0743886244366,0.0595108995493,0.0595108995493,0.044633174662,0.044633174662,0.0297554497747,0.0148777248873,0.0148777248873,0.0,0.0,0.0,-0.0148777248873,-0.0148777248873,-0.0297554497747,-0.0297554497747,-0.044633174662,-0.044633174662,-0.0595108995493,-0.0595108995493,-0.0743886244366,-0.0743886244366,-0.0743886244366,-0.089266349324,-0.089266349324,-0.104144074211,-0.104144074211,-0.119021799099,-0.119021799099,-0.133899523986,-0.133899523986,-0.148777248873,-0.148777248873,-0.148777248873,-0.163654973761,-0.163654973761,-0.178532698648,-0.178532698648,-0.193410423535,-0.193410423535,-0.208288148423,-0.208288148423,-0.22316587331,-0.22316587331,-0.22316587331,-0.238043598197,-0.238043598197,-0.252921323085,-0.252921323085,-0.267799047972,-0.267799047972,-0.282676772859,-0.282676772859,-0.282676772859,-0.297554497747,-0.297554497747,-0.312432222634,-0.312432222634,-0.327309947521,-0.327309947521,-0.327309947521,-0.342187672409,-0.342187672409,-0.357065397296,-0.357065397296,-0.357065397296,-0.371943122183,-0.371943122183,-0.386820847071,-0.386820847071,-0.401698571958,-0.401698571958,-0.416576296845,-0.416576296845,-0.416576296845,-0.431454021733,-0.431454021733,-0.44633174662,-0.44633174662,-0.44633174662,-0.461209471507,-0.461209471507,-0.476087196395,-0.476087196395,-0.490964921282,-0.490964921282,-0.490964921282,-0.505842646169,-0.505842646169,-0.505842646169,-0.520720371057,-0.520720371057,-0.520720371057,-0.535598095944,-0.535598095944,-0.550475820831,-0.550475820831,-0.550475820831,-0.565353545719,-0.565353545719
0.0,0.0,0.0,0.0,0.0,0.0,0.0,0.0,0.0,0.0,0.0,0.0,0.0,0.0,0.0,0.0,0.0,0.0,0.0,0.0,0.0,0.0,0.0,0.0,0.0,0.0,0.0,0.0,0.0,0.0,0.0,0.0,0.0,0.0,0.0,0.0,0.0,0.0,0.0,0.0,0.0,0.0,0.0,0.0,0.0,0.0,0.0,0.0,0.0,0.0,0.0,0.0,0.0,0.0,0.0,0.0,0.0,0.0,0.0,0.0,0.0,0.0,0.0,0.0,0.0,0.0,0.0,0.0,0.0,0.0,0.0,0.0,0.0,0.0,0.0,0.0,0.0,0.0,0.0,0.0,0.0,0.0,0.0,0.0,0.0,0.0,0.0,0.0,0.0,0.0,0.0,0.0,0.0,0.0,0.0,0.0,0.0,0.0,0.0,0.0,0.0,0.0,0.0,0.0,0.0,0.0,0.0,0.0,0.0,0.0,0.0,0.0,0.0,0.0,0.0,0.0,0.0,0.0,0.0,0.0,0.0,0.0,0.0,0.0,0.0,0.0,0.0,0.0,0.0,0.0,0.0,0.0,0.0,0.0,0.0,0.0,0.0,0.0,0.0,0.0,0.0,0.0,0.0,0.0,0.0,0.0,0.0,2.32092508242,2.29116963265,2.26141418287,2.24653645799,2.21678100821,2.21678100821,2.20190328332,2.18702555844,2.17214783355,2.15727010866,2.15727010866,2.14239238378,2.12751465889,2.112636934,2.09775920911,2.06800375934,2.05312603445,2.03824830956,2.03824830956,2.02337058468,2.00849285979,1.9936151349,1.97873741001,1.96385968513,1.93410423535,1.91922651047,1.88947106069,1.88947106069,1.8745933358,1.85971561092,1.84483788603,1.82996016114,1.81508243625,1.80020471137,1.78532698648,1.78532698648,1.77044926159,1.7555715367,1.72581608693,1.71093836204,1.69606063716,1.66630518738,1.65142746249,1.63654973761,1.63654973761,1.63654973761,1.62167201272,1.62167201272,1.60679428783,1.59191656294,1.57703883806,1.56216111317,1.54728338828,1.53240566339,1.51752793851,1.50265021362,1.48777248873,1.47289476385,1.45801703896,1.44313931407,1.44313931407,1.42826158918,1.42826158918,1.4133838643,1.39850613941,1.38362841452,1.38362841452,1.36875068963,1.35387296475,1.33899523986,1.33899523986,1.32411751497,1.30923979008,1.2943620652,1.2943620652,1.27948434031,1.24972889054,1.23485116565,1.21997344076,1.21997344076,1.20509571587,1.20509571587,1.19021799099,1.19021799099,1.1753402661,1.16046254121,1.16046254121,1.14558481632,1.13070709144,1.11582936655,1.10095164166,1.10095164166,1.08607391678,1.07119619189,1.056318467,1.04144074211,1.02656301723,1.02656301723,1.01168529234,0.996807567451,0.996807567451,0.981929842564,0.967052117676,0.952174392789,0.937296667902,0.937296667902,0.922418943014,0.922418943014,0.907541218127,0.907541218127,0.89266349324,0.877785768352,0.877785768352,0.862908043465,0.848030318578,0.848030318578,0.83315259369,0.818274868803,0.818274868803,0.803397143916,0.788519419028,0.788519419028,0.773641694141,0.758763969254,0.758763969254,0.743886244366,0.743886244366,0.729008519479,0.714130794592,0.714130794592,0.699253069704,0.684375344817,0.66949761993,0.654619895042,0.654619895042,0.639742170155,0.639742170155,0.624864445268,0.624864445268,0.60998672038,0.595108995493,0.595108995493,0.580231270606,0.580231270606,0.565353545719,0.550475820831,0.550475820831,0.535598095944,0.535598095944,0.520720371057,0.505842646169,0.505842646169,0.490964921282,0.490964921282,0.476087196395,0.461209471507,0.461209471507,0.44633174662,0.44633174662,0.431454021733,0.431454021733,0.416576296845,0.416576296845,0.401698571958,0.401698571958,0.386820847071,0.371943122183,0.371943122183,0.357065397296,0.357065397296,0.342187672409,0.342187672409,0.327309947521,0.327309947521,0.312432222634,0.297554497747,0.297554497747,0.282676772859,0.282676772859,0.267799047972,0.267799047972,0.252921323085,0.252921323085,0.238043598197,0.22316587331,0.22316587331,0.22316587331,0.208288148423,0.208288148423,0.193410423535,0.193410423535,0.178532698648,0.163654973761,0.163654973761,0.148777248873,0.148777248873,0.148777248873,0.133899523986,0.133899523986,0.119021799099,0.104144074211,0.104144074211,0.089266349324,0.089266349324,0.0743886244366,0.0743886244366,0.0595108995493,0.0595108995493,0.044633174662,0.044633174662,0.0297554497747,0.0297554497747,0.0148777248873,0.0148777248873,0.0,0.0,-0.0148777248873,-0.0148777248873,-0.0297554497747,-0.0297554497747,-0.044633174662,-0.044633174662,-0.0595108995493,-0.0595108995493,-0.0595108995493,-0.0743886244366,-0.0743886244366,-0.089266349324,-0.089266349324,-0.104144074211,-0.104144074211,-0.119021799099,-0.119021799099,-0.133899523986,-0.133899523986,-0.133899523986,-0.148777248873,-0.148777248873,-0.163654973761,-0.163654973761,-0.178532698648,-0.178532698648,-0.193410423535,-0.193410423535,-0.208288148423,-0.208288148423,-0.208288148423,-0.22316587331,-0.22316587331,-0.238043598197,-0.238043598197,-0.252921323085,-0.252921323085,-0.267799047972,-0.267799047972,-0.282676772859,-0.282676772859,-0.282676772859,-0.297554497747,-0.297554497747,-0.312432222634,-0.312432222634,-0.312432222634,-0.327309947521,-0.327309947521,-0.342187672409,-0.342187672409,-0.342187672409,-0.357065397296,-0.357065397296,-0.371943122183,-0.371943122183,-0.386820847071,-0.386820847071,-0.401698571958,-0.401698571958,-0.416576296845,-0.416576296845,-0.416576296845,-0.431454021733,-0.431454021733,-0.431454021733,-0.44633174662,-0.44633174662,-0.461209471507,-0.461209471507,-0.476087196395,-0.476087196395,-0.490964921282,-0.490964921282,-0.490964921282,-0.505842646169,-0.505842646169,-0.505842646169,-0.520720371057,-0.520720371057,-0.520720371057,-0.535598095944,-0.535598095944,-0.550475820831,-0.550475820831,-0.550475820831,-0.565353545719,-0.565353545719
0.0,0.0,0.0,0.0,0.0,0.0,0.0,0.0,0.0,0.0,0.0,0.0,0.0,0.0,0.0,0.0,0.0,0.0,0.0,0.0,0.0,0.0,0.0,0.0,0.0,0.0,0.0,0.0,0.0,0.0,0.0,0.0,0.0,0.0,0.0,0.0,0.0,0.0,0.0,0.0,0.0,0.0,0.0,0.0,0.0,0.0,0.0,0.0,0.0,0.0,0.0,0.0,0.0,0.0,0.0,0.0,0.0,0.0,0.0,0.0,0.0,0.0,0.0,0.0,0.0,0.0,0.0,0.0,0.0,0.0,0.0,0.0,0.0,0.0,0.0,0.0,0.0,0.0,0.0,0.0,0.0,0.0,0.0,0.0,0.0,0.0,0.0,0.0,0.0,0.0,0.0,0.0,0.0,0.0,0.0,0.0,0.0,0.0,0.0,0.0,0.0,0.0,0.0,0.0,0.0,0.0,0.0,0.0,0.0,0.0,0.0,0.0,0.0,0.0,0.0,0.0,0.0,0.0,0.0,0.0,0.0,0.0,0.0,0.0,0.0,0.0,0.0,0.0,0.0,0.0,0.0,0.0,0.0,0.0,0.0,0.0,0.0,0.0,0.0,0.0,0.0,0.0,0.0,0.0,0.0,0.0,0.0,2.30604735754,2.29116963265,2.26141418287,2.2316587331,2.21678100821,2.21678100821,2.20190328332,2.18702555844,2.17214783355,2.17214783355,2.15727010866,2.14239238378,2.12751465889,2.112636934,2.09775920911,2.08288148423,2.06800375934,2.05312603445,2.03824830956,2.02337058468,2.00849285979,1.9936151349,1.97873741001,1.96385968513,1.93410423535,1.91922651047,1.90434878558,1.88947106069,1.8745933358,1.85971561092,1.84483788603,1.82996016114,1.81508243625,1.80020471137,1.80020471137,1.78532698648,1.77044926159,1.7555715367,1.74069381182,1.72581608693,1.69606063716,1.66630518738,1.65142746249,1.65142746249,1.63654973761,1.63654973761,1.62167201272,1.62167201272,1.60679428783,1.59191656294,1.57703883806,1.56216111317,1.54728338828,1.53240566339,1.51752793851,1.50265021362,1.48777248873,1.47289476385,1.45801703896,1.45801703896,1.44313931407,1.42826158918,1.42826158918,1.4133838643,1.39850613941,1.39850613941,1.38362841452,1.36875068963,1.35387296475,1.35387296475,1.33899523986,1.32411751497,1.30923979008,1.2943620652,1.2943620652,1.27948434031,1.26460661542,1.24972889054,1.23485116565,1.21997344076,1.20509571587,1.20509571587,1.19021799099,1.19021799099,1.1753402661,1.1753402661,1.16046254121,1.14558481632,1.13070709144,1.11582936655,1.11582936655,1.10095164166,1.08607391678,1.07119619189,1.056318467,1.04144074211,1.04144074211,1.02656301723,1.01168529234,0.996807567451,0.996807567451,0.981929842564,0.967052117676,0.952174392789,0.937296667902,0.937296667902,0.922418943014,0.922418943014,0.907541218127,0.907541218127,0.89266349324,0.89266349324,0.877785768352,0.862908043465,0.862908043465,0.848030318578,0.83315259369,0.83315259369,0.818274868803,0.803397143916,0.788519419028,0.788519419028,0.773641694141,0.773641694141,0.758763969254,0.743886244366,0.743886244366,0.729008519479,0.729008519479,0.714130794592,0.699253069704,0.684375344817,0.66949761993,0.66949761993,0.654619895042,0.639742170155,0.639742170155,0.624864445268,0.624864445268,0.60998672038,0.60998672038,0.595108995493,0.580231270606,0.580231270606,0.565353545719,0.565353545719,0.550475820831,0.535598095944,0.535598095944,0.520720371057,0.520720371057,0.505842646169,0.490964921282,0.490964921282,0.476087196395,0.476087196395,0.461209471507,0.44633174662,0.44633174662,0.431454021733,0.431454021733,0.431454021733,0.416576296845,0.401698571958,0.401698571958,0.386820847071,0.386820847071,0.371943122183,0.357065397296,0.357065397296,0.342187672409,0.342187672409,0.327309947521,0.327309947521,0.312432222634,0.312432222634,0.297554497747,0.282676772859,0.282676772859,0.267799047972,0.267799047972,0.252921323085,0.252921323085,0.238043598197,0.238043598197,0.22316587331,0.22316587331,0.208288148423,0.208288148423,0.193410423535,0.193410423535,0.178532698648,0.178532698648,0.163654973761,0.163654973761,0.148777248873,0.148777248873,0.133899523986,0.133899523986,0.119021799099,0.119021799099,0.104144074211,0.104144074211,0.089266349324,0.0743886244366,0.0743886244366,0.0743886244366,0.0595108995493,0.0595108995493,0.044633174662,0.0297554497747,0.0297554497747,0.0148777248873,0.0148777248873,0.0,0.0,-0.0148777248873,-0.0148777248873,-0.0297554497747,-0.0297554497747,-0.0297554497747,-0.044633174662,-0.044633174662,-0.0595108995493,-0.0595108995493,-0.0743886244366,-0.0743886244366,-0.089266349324,-0.089266349324,-0.104144074211,-0.104144074211,-0.119021799099,-0.119021799099,-0.133899523986,-0.133899523986,-0.133899523986,-0.148777248873,-0.148777248873,-0.163654973761,-0.163654973761,-0.178532698648,-0.178532698648,-0.193410423535,-0.193410423535,-0.193410423535,-0.208288148423,-0.208288148423,-0.22316587331,-0.22316587331,-0.238043598197,-0.238043598197,-0.252921323085,-0.252921323085,-0.267799047972,-0.267799047972,-0.267799047972,-0.282676772859,-0.282676772859,-0.297554497747,-0.297554497747,-0.297554497747,-0.312432222634,-0.312432222634,-0.327309947521,-0.327309947521,-0.342187672409,-0.342187672409,-0.342187672409,-0.357065397296,-0.357065397296,-0.371943122183,-0.371943122183,-0.386820847071,-0.386820847071,-0.401698571958,-0.401698571958,-0.401698571958,-0.416576296845,-0.416576296845,-0.431454021733,-0.431454021733,-0.431454021733,-0.44633174662,-0.44633174662,-0.461209471507,-0.461209471507,-0.476087196395,-0.476087196395,-0.476087196395,-0.490964921282,-0.490964921282,-0.505842646169,-0.505842646169,-0.505842646169,-0.520720371057,-0.520720371057,-0.520720371057,-0.535598095944,-0.535598095944,-0.535598095944,-0.550475820831,-0.550475820831,-0.565353545719,-0.565353545719
0.0,0.0,0.0,0.0,0.0,0.0,0.0,0.0,0.0,0.0,0.0,0.0,0.0,0.0,0.0,0.0,0.0,0.0,0.0,0.0,0.0,0.0,0.0,0.0,0.0,0.0,0.0,0.0,0.0,0.0,0.0,0.0,0.0,0.0,0.0,0.0,0.0,0.0,0.0,0.0,0.0,0.0,0.0,0.0,0.0,0.0,0.0,0.0,0.0,0.0,0.0,0.0,0.0,0.0,0.0,0.0,0.0,0.0,0.0,0.0,0.0,0.0,0.0,0.0,0.0,0.0,0.0,0.0,0.0,0.0,0.0,0.0,0.0,0.0,0.0,0.0,0.0,0.0,0.0,0.0,0.0,0.0,0.0,0.0,0.0,0.0,0.0,0.0,0.0,0.0,0.0,0.0,0.0,0.0,0.0,0.0,0.0,0.0,0.0,0.0,0.0,0.0,0.0,0.0,0.0,0.0,0.0,0.0,0.0,0.0,0.0,0.0,0.0,0.0,0.0,0.0,0.0,0.0,0.0,0.0,0.0,0.0,0.0,0.0,0.0,0.0,0.0,0.0,0.0,0.0,0.0,0.0,0.0,0.0,0.0,0.0,0.0,0.0,0.0,0.0,0.0,0.0,0.0,0.0,0.0,0.0,0.0,2.30604735754,2.27629190776,2.26141418287,2.2316587331,2.21678100821,2.20190328332,2.20190328332,2.18702555844,2.18702555844,2.17214783355,2.17214783355,2.15727010866,2.14239238378,2.12751465889,2.09775920911,2.08288148423,2.06800375934,2.05312603445,2.03824830956,2.02337058468,2.02337058468,2.00849285979,1.97873741001,1.96385968513,1.93410423535,1.91922651047,1.90434878558,1.88947106069,1.8745933358,1.85971561092,1.84483788603,1.82996016114,1.81508243625,1.81508243625,1.80020471137,1.78532698648,1.77044926159,1.77044926159,1.7555715367,1.72581608693,1.71093836204,1.68118291227,1.66630518738,1.65142746249,1.63654973761,1.63654973761,1.62167201272,1.62167201272,1.60679428783,1.59191656294,1.57703883806,1.56216111317,1.54728338828,1.53240566339,1.51752793851,1.50265021362,1.48777248873,1.47289476385,1.45801703896,1.45801703896,1.44313931407,1.42826158918,1.42826158918,1.4133838643,1.39850613941,1.39850613941,1.38362841452,1.36875068963,1.35387296475,1.35387296475,1.33899523986,1.32411751497,1.30923979008,1.2943620652,1.2943620652,1.27948434031,1.26460661542,1.24972889054,1.23485116565,1.21997344076,1.21997344076,1.20509571587,1.20509571587,1.19021799099,1.1753402661,1.1753402661,1.16046254121,1.14558481632,1.13070709144,1.11582936655,1.11582936655,1.10095164166,1.08607391678,1.07119619189,1.056318467,1.04144074211,1.04144074211,1.02656301723,1.01168529234,1.01168529234,0.996807567451,0.981929842564,0.967052117676,0.967052117676,0.952174392789,0.937296667902,0.922418943014,0.922418943014,0.922418943014,0.907541218127,0.89266349324,0.89266349324,0.877785768352,0.877785768352,0.862908043465,0.848030318578,0.83315259369,0.83315259369,0.818274868803,0.803397143916,0.803397143916,0.788519419028,0.788519419028,0.773641694141,0.758763969254,0.758763969254,0.743886244366,0.729008519479,0.729008519479,0.714130794592,0.699253069704,0.684375344817,0.66949761993,0.66949761993,0.654619895042,0.639742170155,0.639742170155,0.624864445268,0.624864445268,0.60998672038,0.60998672038,0.595108995493,0.595108995493,0.580231270606,0.565353545719,0.565353545719,0.550475820831,0.550475820831,0.535598095944,0.535598095944,0.520720371057,0.505842646169,0.505842646169,0.490964921282,0.476087196395,0.476087196395,0.461209471507,0.44633174662,0.44633174662,0.44633174662,0.431454021733,0.431454021733,0.416576296845,0.416576296845,0.401698571958,0.386820847071,0.386820847071,0.371943122183,0.371943122183,0.357065397296,0.357065397296,0.342187672409,0.342187672409,0.327309947521,0.312432222634,0.312432222634,0.297554497747,0.297554497747,0.282676772859,0.267799047972,0.267799047972,0.252921323085,0.252921323085,0.238043598197,0.238043598197,0.22316587331,0.22316587331,0.208288148423,0.208288148423,0.193410423535,0.193410423535,0.178532698648,0.178532698648,0.163654973761,0.163654973761,0.148777248873,0.148777248873,0.133899523986,0.133899523986,0.119021799099,0.119021799099,0.104144074211,0.104144074211,0.089266349324,0.089266349324,0.0743886244366,0.0743886244366,0.0595108995493,0.0595108995493,0.044633174662,0.0297554497747,0.0297554497747,0.0148777248873,0.0148777248873,0.0,0.0,-0.0148777248873,-0.0148777248873,-0.0297554497747,-0.0297554497747,-0.0297554497747,-0.044633174662,-0.044633174662,-0.0595108995493,-0.0595108995493,-0.0743886244366,-0.0743886244366,-0.089266349324,-0.089266349324,-0.104144074211,-0.104144074211,-0.119021799099,-0.119021799099,-0.119021799099,-0.133899523986,-0.133899523986,-0.148777248873,-0.148777248873,-0.163654973761,-0.163654973761,-0.163654973761,-0.178532698648,-0.178532698648,-0.193410423535,-0.193410423535,-0.208288148423,-0.208288148423,-0.22316587331,-0.22316587331,-0.238043598197,-0.238043598197,-0.252921323085,-0.252921323085,-0.252921323085,-0.267799047972,-0.267799047972,-0.282676772859,-0.282676772859,-0.282676772859,-0.297554497747,-0.297554497747,-0.312432222634,-0.312432222634,-0.327309947521,-0.327309947521,-0.342187672409,-0.342187672409,-0.342187672409,-0.357065397296,-0.357065397296,-0.371943122183,-0.371943122183,-0.386820847071,-0.386820847071,-0.401698571958,-0.401698571958,-0.401698571958,-0.416576296845,-0.416576296845,-0.416576296845,-0.431454021733,-0.431454021733,-0.44633174662,-0.44633174662,-0.461209471507,-0.461209471507,-0.461209471507,-0.476087196395,-0.476087196395,-0.490964921282,-0.490964921282,-0.490964921282,-0.505842646169,-0.505842646169,-0.520720371057,-0.520720371057,-0.520720371057,-0.535598095944,-0.535598095944,-0.535598095944,-0.550475820831,-0.550475820831,-0.565353545719,-0.565353545719
0.0,0.0,0.0,0.0,0.0,0.0,0.0,0.0,0.0,0.0,0.0,0.0,0.0,0.0,0.0,0.0,0.0,0.0,0.0,0.0,0.0,0.0,0.0,0.0,0.0,0.0,0.0,0.0,0.0,0.0,0.0,0.0,0.0,0.0,0.0,0.0,0.0,0.0,0.0,0.0,0.0,0.0,0.0,0.0,0.0,0.0,0.0,0.0,0.0,0.0,0.0,0.0,0.0,0.0,0.0,0.0,0.0,0.0,0.0,0.0,0.0,0.0,0.0,0.0,0.0,0.0,0.0,0.0,0.0,0.0,0.0,0.0,0.0,0.0,0.0,0.0,0.0,0.0,0.0,0.0,0.0,0.0,0.0,0.0,0.0,0.0,0.0,0.0,0.0,0.0,0.0,0.0,0.0,0.0,0.0,0.0,0.0,0.0,0.0,0.0,0.0,0.0,0.0,0.0,0.0,0.0,0.0,0.0,0.0,0.0,0.0,0.0,0.0,0.0,0.0,0.0,0.0,0.0,0.0,0.0,0.0,0.0,0.0,0.0,0.0,0.0,0.0,0.0,0.0,0.0,0.0,0.0,0.0,0.0,0.0,0.0,0.0,0.0,0.0,0.0,0.0,0.0,0.0,0.0,0.0,0.0,0.0,2.30604735754,2.27629190776,2.24653645799,2.2316587331,2.21678100821,2.20190328332,2.20190328332,2.18702555844,2.18702555844,2.17214783355,2.17214783355,2.15727010866,2.14239238378,2.12751465889,2.112636934,2.09775920911,2.06800375934,2.05312603445,2.05312603445,2.03824830956,2.02337058468,2.00849285979,1.9936151349,1.96385968513,1.94898196024,1.91922651047,1.90434878558,1.88947106069,1.8745933358,1.85971561092,1.84483788603,1.82996016114,1.82996016114,1.81508243625,1.80020471137,1.80020471137,1.78532698648,1.77044926159,1.7555715367,1.74069381182,1.71093836204,1.69606063716,1.66630518738,1.65142746249,1.65142746249,1.63654973761,1.62167201272,1.62167201272,1.60679428783,1.59191656294,1.59191656294,1.57703883806,1.56216111317,1.54728338828,1.53240566339,1.51752793851,1.50265021362,1.48777248873,1.47289476385,1.45801703896,1.44313931407,1.42826158918,1.42826158918,1.4133838643,1.4133838643,1.39850613941,1.38362841452,1.36875068963,1.36875068963,1.35387296475,1.33899523986,1.32411751497,1.30923979008,1.30923979008,1.2943620652,1.27948434031,1.26460661542,1.24972889054,1.23485116565,1.23485116565,1.21997344076,1.20509571587,1.20509571587,1.19021799099,1.19021799099,1.1753402661,1.16046254121,1.14558481632,1.13070709144,1.13070709144,1.11582936655,1.10095164166,1.08607391678,1.07119619189,1.056318467,1.056318467,1.04144074211,1.02656301723,1.01168529234,1.01168529234,0.996807567451,0.981929842564,0.981929842564,0.967052117676,0.952174392789,0.937296667902,0.937296667902,0.922418943014,0.922418943014,0.907541218127,0.907541218127,0.89266349324,0.877785768352,0.877785768352,0.862908043465,0.848030318578,0.848030318578,0.83315259369,0.818274868803,0.818274868803,0.803397143916,0.788519419028,0.788519419028,0.773641694141,0.758763969254,0.758763969254,0.743886244366,0.743886244366,0.729008519479,0.714130794592,0.699253069704,0.684375344817,0.684375344817,0.66949761993,0.654619895042,0.654619895042,0.639742170155,0.624864445268,0.624864445268,0.60998672038,0.60998672038,0.595108995493,0.595108995493,0.580231270606,0.580231270606,0.565353545719,0.550475820831,0.550475820831,0.535598095944,0.535598095944,0.520720371057,0.505842646169,0.505842646169,0.490964921282,0.476087196395,0.476087196395,0.461209471507,0.461209471507,0.44633174662,0.44633174662,0.431454021733,0.431454021733,0.416576296845,0.416576296845,0.401698571958,0.386820847071,0.386820847071,0.371943122183,0.371943122183,0.357065397296,0.357065397296,0.342187672409,0.342187672409,0.327309947521,0.327309947521,0.312432222634,0.297554497747,0.297554497747,0.282676772859,0.282676772859,0.267799047972,0.252921323085,0.252921323085,0.238043598197,0.238043598197,0.22316587331,0.22316587331,0.208288148423,0.208288148423,0.208288148423,0.193410423535,0.178532698648,0.178532698648,0.163654973761,0.163654973761,0.148777248873,0.148777248873,0.133899523986,0.133899523986,0.119021799099,0.119021799099,0.104144074211,0.104144074211,0.089266349324,0.089266349324,0.0743886244366,0.0743886244366,0.0595108995493,0.0595108995493,0.044633174662,0.044633174662,0.0297554497747,0.0297554497747,0.0148777248873,0.0,0.0,-0.0148777248873,-0.0148777248873,-0.0148777248873,-0.0297554497747,-0.0297554497747,-0.044633174662,-0.044633174662,-0.0595108995493,-0.0595108995493,-0.0743886244366,-0.0743886244366,-0.089266349324,-0.089266349324,-0.089266349324,-0.104144074211,-0.104144074211,-0.119021799099,-0.119021799099,-0.133899523986,-0.133899523986,-0.148777248873,-0.148777248873,-0.163654973761,-0.163654973761,-0.163654973761,-0.178532698648,-0.178532698648,-0.193410423535,-0.193410423535,-0.208288148423,-0.208288148423,-0.22316587331,-0.22316587331,-0.22316587331,-0.238043598197,-0.238043598197,-0.252921323085,-0.252921323085,-0.267799047972,-0.267799047972,-0.282676772859,-0.282676772859,-0.282676772859,-0.297554497747,-0.297554497747,-0.312432222634,-0.312432222634,-0.327309947521,-0.327309947521,-0.327309947521,-0.342187672409,-0.342187672409,-0.357065397296,-0.357065397296,-0.357065397296,-0.371943122183,-0.371943122183,-0.386820847071,-0.386820847071,-0.401698571958,-0.401698571958,-0.416576296845,-0.416576296845,-0.416576296845,-0.431454021733,-0.431454021733,-0.44633174662,-0.44633174662,-0.44633174662,-0.461209471507,-0.461209471507,-0.476087196395,-0.476087196395,-0.490964921282,-0.490964921282,-0.490964921282,-0.505842646169,-0.505842646169,-0.505842646169,-0.520720371057,-0.520720371057,-0.535598095944,-0.535598095944,-0.535598095944,-0.550475820831,-0.550475820831,-0.550475820831,-0.565353545719
0.0,0.0,0.0,0.0,0.0,0.0,0.0,0.0,0.0,0.0,0.0,0.0,0.0,0.0,0.0,0.0,0.0,0.0,0.0,0.0,0.0,0.0,0.0,0.0,0.0,0.0,0.0,0.0,0.0,0.0,0.0,0.0,0.0,0.0,0.0,0.0,0.0,0.0,0.0,0.0,0.0,0.0,0.0,0.0,0.0,0.0,0.0,0.0,0.0,0.0,0.0,0.0,0.0,0.0,0.0,0.0,0.0,0.0,0.0,0.0,0.0,0.0,0.0,0.0,0.0,0.0,0.0,0.0,0.0,0.0,0.0,0.0,0.0,0.0,0.0,0.0,0.0,0.0,0.0,0.0,0.0,0.0,0.0,0.0,0.0,0.0,0.0,0.0,0.0,0.0,0.0,0.0,0.0,0.0,0.0,0.0,0.0,0.0,0.0,0.0,0.0,0.0,0.0,0.0,0.0,0.0,0.0,0.0,0.0,0.0,0.0,0.0,0.0,0.0,0.0,0.0,0.0,0.0,0.0,0.0,0.0,0.0,0.0,0.0,0.0,0.0,0.0,0.0,0.0,0.0,0.0,0.0,0.0,0.0,0.0,0.0,0.0,0.0,0.0,0.0,0.0,0.0,0.0,0.0,0.0,0.0,2.32092508242,2.30604735754,2.27629190776,2.24653645799,2.2316587331,2.21678100821,2.21678100821,2.20190328332,2.20190328332,2.18702555844,2.18702555844,2.17214783355,2.17214783355,2.15727010866,2.14239238378,2.12751465889,2.09775920911,2.08288148423,2.06800375934,2.05312603445,2.03824830956,2.02337058468,2.00849285979,1.9936151349,1.96385968513,1.94898196024,1.91922651047,1.90434878558,1.88947106069,1.8745933358,1.85971561092,1.84483788603,1.82996016114,1.82996016114,1.81508243625,1.81508243625,1.80020471137,1.78532698648,1.78532698648,1.77044926159,1.7555715367,1.72581608693,1.71093836204,1.68118291227,1.66630518738,1.65142746249,1.63654973761,1.63654973761,1.62167201272,1.60679428783,1.60679428783,1.59191656294,1.57703883806,1.56216111317,1.54728338828,1.53240566339,1.51752793851,1.50265021362,1.48777248873,1.47289476385,1.45801703896,1.44313931407,1.42826158918,1.42826158918,1.4133838643,1.4133838643,1.39850613941,1.38362841452,1.38362841452,1.36875068963,1.35387296475,1.33899523986,1.32411751497,1.32411751497,1.30923979008,1.2943620652,1.27948434031,1.26460661542,1.24972889054,1.24972889054,1.23485116565,1.21997344076,1.21997344076,1.20509571587,1.20509571587,1.19021799099,1.1753402661,1.16046254121,1.16046254121,1.14558481632,1.13070709144,1.11582936655,1.10095164166,1.08607391678,1.07119619189,1.07119619189,1.056318467,1.04144074211,1.02656301723,1.02656301723,1.01168529234,0.996807567451,0.996807567451,0.981929842564,0.967052117676,0.952174392789,0.952174392789,0.937296667902,0.922418943014,0.922418943014,0.907541218127,0.907541218127,0.89266349324,0.89266349324,0.877785768352,0.862908043465,0.848030318578,0.848030318578,0.83315259369,0.818274868803,0.818274868803,0.803397143916,0.788519419028,0.788519419028,0.773641694141,0.773641694141,0.758763969254,0.743886244366,0.743886244366,0.729008519479,0.714130794592,0.699253069704,0.684375344817,0.684375344817,0.66949761993,0.654619895042,0.654619895042,0.639742170155,0.639742170155,0.624864445268,0.624864445268,0.60998672038,0.60998672038,0.595108995493,0.580231270606,0.580231270606,0.565353545719,0.565353545719,0.550475820831,0.535598095944,0.535598095944,0.520720371057,0.520720371057,0.505842646169,0.490964921282,0.476087196395,0.476087196395,0.461209471507,0.461209471507,0.44633174662,0.44633174662,0.431454021733,0.431454021733,0.416576296845,0.416576296845,0.401698571958,0.401698571958,0.386820847071,0.371943122183,0.371943122183,0.357065397296,0.357065397296,0.342187672409,0.342187672409,0.327309947521,0.327309947521,0.312432222634,0.312432222634,0.297554497747,0.282676772859,0.282676772859,0.267799047972,0.252921323085,0.252921323085,0.238043598197,0.238043598197,0.22316587331,0.22316587331,0.22316587331,0.208288148423,0.208288148423,0.193410423535,0.178532698648,0.178532698648,0.163654973761,0.163654973761,0.148777248873,0.148777248873,0.133899523986,0.133899523986,0.119021799099,0.119021799099,0.104144074211,0.104144074211,0.089266349324,0.089266349324,0.0743886244366,0.0743886244366,0.0595108995493,0.0595108995493,0.044633174662,0.044633174662,0.0297554497747,0.0297554497747,0.0148777248873,0.0148777248873,0.0,0.0,-0.0148777248873,-0.0148777248873,-0.0297554497747,-0.0297554497747,-0.044633174662,-0.044633174662,-0.0595108995493,-0.0595108995493,-0.0743886244366,-0.0743886244366,-0.0743886244366,-0.089266349324,-0.089266349324,-0.104144074211,-0.104144074211,-0.119021799099,-0.119021799099,-0.133899523986,-0.133899523986,-0.148777248873,-0.148777248873,-0.148777248873,-0.163654973761,-0.163654973761,-0.178532698648,-0.178532698648,-0.193410423535,-0.193410423535,-0.208288148423,-0.208288148423,-0.22316587331,-0.22316587331,-0.22316587331,-0.238043598197,-0.238043598197,-0.252921323085,-0.252921323085,-0.267799047972,-0.267799047972,-0.267799047972,-0.282676772859,-0.282676772859,-0.297554497747,-0.297554497747,-0.312432222634,-0.312432222634,-0.327309947521,-0.327309947521,-0.327309947521,-0.342187672409,-0.342187672409,-0.357065397296,-0.357065397296,-0.357065397296,-0.371943122183,-0.371943122183,-0.386820847071,-0.386820847071,-0.401698571958,-0.401698571958,-0.416576296845,-0.416576296845,-0.416576296845,-0.431454021733,-0.431454021733,-0.44633174662,-0.44633174662,-0.44633174662,-0.461209471507,-0.461209471507,-0.476087196395,-0.476087196395,-0.490964921282,-0.490964921282,-0.490964921282,-0.505842646169,-0.505842646169,-0.505842646169,-0.520720371057,-0.520720371057,-0.520720371057,-0.535598095944,-0.535598095944,-0.550475820831,-0.550475820831,-0.550475820831,-0.565353545719
