281,281,282,282,282,282,282,282,283,283,283,283,283,284,284,284,285,285,285,286,286,286,287,287,288,288,288,289,289,289,290,290,290,290,291,291,291,292,292,292,292,293,293,293,294,294,294,295,295,295,296,296,296,297,297,297,298,298,298,299,299,299,300,300,300,300,301,301,301,302,302,303,303,303,304,304,304,305,305,305,306,306,306,307,307,307,308,308,308,309,309,309,309,310,310,310,311,311,311,312,312,312,313,313,313,314,314,315,315,315,316,316,317,317,317,318,318,318,318,319,319,319,319,320,320,320,320,321,321,322,322,322,323,323,324,324,324,325,325,326,326,326,327,327,327,328,328,328,329,329,329,330,330,330,331,331,331,332,332,333,333,333,334,334,334,335,335,335,336,336,336,337,337,338,338,338,339,339,339,340,340,341,341,341,342,342,342,343,343,344,344,344,345,345,346,346,346,347,347,348,348,348,349,349,349,350,350,350,351,351,352,352,352,353,353,354,354,355,355,355,356,356,356,357,357,358,358,358,359,359,359,360,360,361,361,362,362,362,363,363,364,364,364,365,365,366,366,366,367,367,367,368,368,369,369,370,370,370,371,371,372,372,372,373,373,374,374,374,375,375,375,376,376,377,377,378,378,378,379,379,380,380,380,381,381,382,382,383,383,383,384,384,385,385,386,386,386,387,387,388,388,389,389,390,390,391,391,391,392,392,393,393,393,394,394,395,395,396,396,397,397,398,398,399,399,400,400,401,401,402,402,403,403,404,404,405,405,405,406,406,407,407,408,408,409,409,410,410,410,411,411,412,412,413,413,414,414,415,415,416,416,417,418,418,419,419,420,420,421,421,421,422,422,423,423,424,424,425,425,426,426,427,427,427,428,428,429,430,430,431,431,432,432,433,433,434,435,435,436,436,437,438,438,439,439,440,440,441,441,442,442,443,443,444,444,445,445,446,446,447,448,448,449,450,450,451,451,452,452,453,454,454,455,455,456,456,457,458,459,459,460,461,461,462,462,463,463,464,464,465,465,466,467,468,468,469,470,471,471,472,472,473,474,474,475,476,476,477,477,478,479,479,480,481,481,482,483,483,484,485,485,486,487,487,488,489,489,490,490,491,491,492,493,493,494,495,496,496,497,498,498,499,499,500,501,502,503,504,505,505,506,507,508,508,509,510,511,512,512,513,514,515,516,516,517,518,519,519,520,521,521,522,522,523,523,524,524,525,526,526,526,0,0,0,0,0,0,0,0,0,0,0,0,0,0,0,0,0,0,0,0,0,0,0,0,0,0,0,0,0,0,0,0,0,0,0,0,0,0,0,0,0,0,0,0,0,0,0,0,0,0,0,0,0,0,0,0,0,0,0,0,0,0,0,0,0,0,0,0,0,0,0,0,0,0,0,0,0,0,0,0,0,0,0,0,0,0,0,0,0,0,0,0,0,0,0,0,0,0,0
281,281,282,282,282,282,282,283,283,283,283,283,284,284,284,284,285,285,285,286,286,286,287,287,288,288,288,289,289,289,290,290,290,290,291,291,291,292,292,292,293,293,293,293,294,294,294,295,295,295,296,296,296,297,297,297,298,298,298,299,299,299,300,300,300,300,301,301,302,302,302,303,303,303,303,304,304,305,305,305,306,306,306,307,307,307,308,308,308,309,309,309,309,310,310,310,311,311,311,312,312,312,313,313,314,314,314,315,315,315,316,316,317,317,317,317,318,318,318,319,319,319,319,320,320,320,320,321,321,322,322,322,323,323,324,324,324,325,325,326,326,326,327,327,327,328,328,328,329,329,329,330,330,330,331,331,331,332,332,333,333,334,334,334,334,335,335,335,336,336,336,337,337,338,338,338,339,339,339,340,340,341,341,341,342,342,342,343,343,344,344,344,345,345,346,346,346,347,347,348,348,348,349,349,349,350,350,350,351,351,352,352,352,353,353,354,354,355,355,355,356,356,356,357,357,358,358,358,359,359,359,360,360,361,361,362,362,362,363,363,364,364,364,365,365,365,366,366,367,367,368,368,368,369,369,370,370,370,371,371,372,372,372,373,373,374,374,374,375,375,375,376,376,377,377,378,378,379,379,379,380,380,380,381,381,382,382,383,383,383,384,384,385,385,386,386,386,387,387,388,388,389,389,390,390,391,391,391,392,392,393,393,393,394,394,395,395,396,396,397,397,398,398,399,399,400,400,401,401,402,402,403,403,404,404,405,405,405,406,406,407,407,408,408,409,409,410,410,411,411,411,412,412,413,413,414,414,415,415,416,416,417,418,418,419,419,420,420,421,421,422,422,422,423,423,424,424,425,425,426,426,427,427,428,428,429,429,430,430,431,431,432,432,433,433,434,435,435,436,436,437,438,438,439,439,440,440,441,441,442,442,443,443,444,444,445,445,446,446,447,448,448,449,450,450,451,451,452,452,453,454,454,455,455,456,457,457,458,459,459,460,461,461,462,462,463,463,464,464,465,466,466,467,468,468,469,470,471,471,472,472,473,474,474,475,475,476,477,477,478,479,479,480,481,481,482,483,483,484,485,485,486,487,488,488,489,489,490,490,491,491,492,493,493,494,495,496,496,497,497,498,499,499,500,501,502,503,504,505,506,506,507,508,509,509,510,511,512,513,513,514,515,516,517,517,518,519,519,520,521,521,522,522,523,523,524,524,525,526,526,527,527,0,0,0,0,0,0,0,0,0,0,0,0,0,0,0,0,0,0,0,0,0,0,0,0,0,0,0,0,0,0,0,0,0,0,0,0,0,0,0,0,0,0,0,0,0,0,0,0,0,0,0,0,0,0,0,0,0,0,0,0,0,0,0,0,0,0,0,0,0,0,0,0,0,0,0,0,0,0,0,0,0,0,0,0,0,0,0,0,0,0,0,0,0,0,0,0,0,0
281,282,282,282,282,282,283,283,283,283,283,283,284,284,284,285,285,285,285,286,286,287,287,288,288,288,289,289,289,289,290,290,290,291,291,291,291,292,292,292,293,293,293,293,294,294,294,295,295,295,296,296,296,297,297,297,298,298,298,299,299,299,300,300,300,301,301,301,302,302,302,303,303,303,303,304,304,305,305,305,306,306,306,307,307,307,308,308,308,309,309,309,310,310,310,311,311,311,312,312,312,313,313,313,314,314,314,315,315,315,316,316,316,317,317,317,318,318,318,319,319,319,319,320,320,320,321,321,321,322,322,322,323,323,324,324,324,325,325,326,326,326,327,327,327,328,328,328,329,329,329,330,330,330,331,331,331,332,332,333,333,333,334,334,334,335,335,335,336,336,336,337,337,338,338,338,339,339,339,340,340,341,341,341,342,342,342,343,343,343,344,344,345,345,346,346,346,347,347,348,348,348,349,349,349,350,350,350,351,351,352,352,352,353,353,354,354,355,355,355,356,356,356,357,357,358,358,358,359,359,359,360,360,361,361,361,362,362,363,363,364,364,364,365,365,365,366,366,367,367,368,368,368,369,369,370,370,370,371,371,372,372,372,373,373,374,374,374,375,375,375,376,376,377,377,378,378,379,379,379,380,380,380,381,381,382,382,383,383,383,384,384,385,385,386,386,386,387,387,388,388,389,389,390,390,391,391,391,392,392,393,393,394,394,394,395,395,396,396,397,397,398,398,399,399,400,400,400,401,402,402,403,403,404,404,405,405,405,406,406,407,407,408,408,409,409,410,410,411,411,411,412,412,413,413,414,414,415,415,416,416,417,417,418,419,419,420,420,421,421,421,422,422,423,423,424,424,425,425,426,426,427,427,428,428,429,429,430,430,431,431,432,432,433,433,434,435,435,436,437,437,438,438,439,439,440,440,441,441,442,442,443,443,444,444,445,445,446,446,447,448,448,449,449,450,451,451,452,453,453,454,454,455,455,456,457,457,458,459,459,460,461,461,462,462,463,463,464,464,465,466,466,467,468,468,469,470,470,471,472,472,473,473,474,475,475,476,476,477,478,479,479,480,481,481,482,483,483,484,485,486,486,487,488,488,489,489,490,490,491,491,492,493,493,494,495,495,496,497,497,498,499,499,500,501,502,503,504,505,506,507,507,508,509,509,510,511,512,513,514,514,515,516,517,517,518,519,519,520,521,521,522,522,523,523,524,525,525,526,526,527,527,528,0,0,0,0,0,0,0,0,0,0,0,0,0,0,0,0,0,0,0,0,0,0,0,0,0,0,0,0,0,0,0,0,0,0,0,0,0,0,0,0,0,0,0,0,0,0,0,0,0,0,0,0,0,0,0,0,0,0,0,0,0,0,0,0,0,0,0,0,0,0,0,0,0,0,0,0,0,0,0,0,0,0,0,0,0,0,0,0,0,0,0,0,0,0,0,0,0
281,282,282,282,282,283,283,283,283,283,283,284,284,284,284,285,285,285,286,286,286,287,287,288,288,288,289,289,289,289,290,290,290,291,291,291,291,292,292,292,293,293,293,293,294,294,294,295,295,295,296,296,297,297,297,297,298,298,298,299,299,299,300,300,300,301,301,301,302,302,302,303,303,303,303,304,304,305,305,305,306,306,306,307,307,307,308,308,308,309,309,309,310,310,310,311,311,311,312,312,312,313,313,313,314,314,314,315,315,315,316,316,316,317,317,317,318,318,318,319,319,319,319,320,320,320,321,321,321,322,322,322,323,323,324,324,324,325,325,326,326,326,327,327,327,328,328,328,329,329,329,330,330,330,331,331,331,332,332,333,333,333,334,334,334,335,335,335,336,336,336,337,337,338,338,338,339,339,339,340,340,341,341,341,342,342,342,343,343,343,344,344,345,345,346,346,346,347,347,348,348,348,349,349,349,350,350,350,351,351,352,352,352,353,353,354,354,355,355,355,356,356,356,357,357,358,358,358,359,359,359,360,360,361,361,361,362,362,363,363,364,364,364,365,365,365,366,366,367,367,368,368,368,369,369,370,370,370,371,371,372,372,372,373,373,374,374,374,375,375,375,376,376,377,377,378,378,379,379,379,380,380,381,381,381,382,382,383,383,384,384,384,385,385,386,386,387,387,387,388,388,389,389,390,390,390,391,391,392,392,393,393,394,394,394,395,395,396,396,397,397,398,398,399,399,400,400,401,401,402,402,403,403,404,404,405,405,405,406,406,407,407,408,408,409,409,410,410,411,411,411,412,412,413,413,414,414,415,415,416,416,417,417,418,418,419,420,420,420,421,421,422,423,423,423,424,424,425,425,426,426,427,427,428,428,429,429,430,430,431,431,432,432,433,434,434,435,435,436,437,437,438,438,439,439,440,440,441,441,442,442,443,443,444,444,445,445,446,446,447,448,448,449,449,450,451,451,452,453,453,454,454,455,455,456,457,457,458,459,459,460,461,461,462,462,463,463,464,465,465,466,466,467,468,468,469,470,470,471,471,472,473,473,474,475,475,476,476,477,478,479,479,480,481,481,482,483,483,484,485,485,486,487,488,488,489,489,490,490,491,491,492,493,493,494,495,495,496,497,497,498,499,500,500,501,503,504,505,505,506,507,507,508,509,510,510,511,512,513,514,514,515,516,517,518,518,519,519,520,521,521,522,522,523,523,524,525,525,526,527,527,527,0,0,0,0,0,0,0,0,0,0,0,0,0,0,0,0,0,0,0,0,0,0,0,0,0,0,0,0,0,0,0,0,0,0,0,0,0,0,0,0,0,0,0,0,0,0,0,0,0,0,0,0,0,0,0,0,0,0,0,0,0,0,0,0,0,0,0,0,0,0,0,0,0,0,0,0,0,0,0,0,0,0,0,0,0,0,0,0,0,0,0,0,0,0,0,0,0,0
282,282,282,282,283,283,283,283,283,284,284,284,284,284,285,285,285,286,286,286,286,287,287,288,288,288,289,289,289,290,290,290,290,291,291,291,292,292,292,292,293,293,293,294,294,294,295,295,295,296,296,296,297,297,297,297,298,298,299,299,299,300,300,300,300,301,301,301,302,302,302,303,303,303,304,304,304,305,305,306,306,306,307,307,307,308,308,308,308,309,309,309,310,310,310,311,311,311,312,312,312,313,313,313,314,314,314,315,315,315,316,316,316,317,317,317,318,318,318,319,319,319,319,320,320,320,321,321,321,322,322,322,323,323,324,324,324,325,325,326,326,326,327,327,327,328,328,328,329,329,329,330,330,330,331,331,331,332,332,333,333,333,334,334,334,335,335,335,336,336,336,337,337,338,338,338,339,339,339,340,340,341,341,341,342,342,342,343,343,343,344,344,345,345,346,346,346,347,347,348,348,348,349,349,349,350,350,351,351,351,352,352,352,353,353,354,354,355,355,355,356,356,356,357,357,358,358,358,359,359,360,360,360,361,361,361,362,362,363,363,363,364,364,365,365,365,366,366,367,367,368,368,368,369,369,370,370,370,371,371,372,372,372,373,373,374,374,374,375,375,375,376,376,377,377,378,378,379,379,379,380,380,381,381,381,382,382,383,383,384,384,384,385,385,386,386,387,387,387,388,388,389,389,390,390,390,391,391,392,392,393,393,394,394,395,395,395,396,396,397,397,398,398,399,399,400,400,401,401,402,402,403,403,404,404,405,405,406,406,406,407,407,408,408,409,409,410,410,411,411,411,412,412,413,413,414,414,415,415,416,416,417,417,418,418,419,420,420,420,421,421,422,423,423,423,424,424,425,425,426,426,427,427,428,428,429,429,430,430,431,431,432,433,433,434,434,435,435,436,437,437,438,438,439,439,440,441,441,442,442,442,443,443,444,444,445,445,446,446,447,448,448,449,449,450,451,451,452,453,453,454,454,455,455,456,457,457,458,459,459,460,461,461,462,462,463,463,464,465,465,466,467,467,468,469,469,470,470,471,471,472,473,473,474,474,475,476,476,477,478,479,479,480,481,481,482,483,483,484,485,485,486,487,488,488,489,489,490,490,491,491,492,493,493,494,495,496,496,497,498,498,499,500,501,502,503,504,505,506,506,507,508,508,509,510,510,511,512,513,514,514,515,516,517,518,518,519,519,520,521,521,522,522,523,523,524,524,525,526,527,527,0,0,0,0,0,0,0,0,0,0,0,0,0,0,0,0,0,0,0,0,0,0,0,0,0,0,0,0,0,0,0,0,0,0,0,0,0,0,0,0,0,0,0,0,0,0,0,0,0,0,0,0,0,0,0,0,0,0,0,0,0,0,0,0,0,0,0,0,0,0,0,0,0,0,0,0,0,0,0,0,0,0,0,0,0,0,0,0,0,0,0,0,0,0,0,0,0,0,0
284,284,283,283,283,283,283,284,284,284,284,284,284,285,285,285,285,286,286,286,287,287,287,288,288,289,289,289,289,290,290,290,291,291,291,291,292,292,292,292,293,293,293,294,294,294,295,295,295,296,296,296,297,297,297,298,298,298,299,299,299,300,300,300,300,301,301,301,302,302,302,303,303,303,304,304,304,305,305,306,306,306,307,307,307,308,308,308,309,309,309,309,310,310,310,311,311,311,312,312,312,313,313,313,314,314,314,315,315,315,316,316,316,317,317,317,318,318,318,319,319,319,319,320,320,320,321,321,321,322,322,322,323,323,324,324,324,325,325,326,326,326,327,327,327,328,328,328,329,329,329,330,330,330,331,331,331,332,332,333,333,333,334,334,334,335,335,335,336,336,336,337,337,338,338,338,339,339,339,340,340,341,341,341,342,342,342,343,343,343,344,344,345,345,346,346,346,347,347,348,348,348,349,349,349,350,350,351,351,351,352,352,352,353,353,354,354,355,355,355,356,356,356,357,357,358,358,358,359,359,360,360,360,361,361,361,362,362,363,363,363,364,364,365,365,365,366,366,367,367,368,368,368,369,369,370,370,370,371,371,372,372,372,373,373,374,374,374,375,375,375,376,376,377,377,378,378,379,379,379,380,380,381,381,382,382,382,383,383,384,384,384,385,385,386,386,387,387,388,388,388,389,389,390,390,390,391,391,392,392,393,393,394,394,395,395,396,396,396,397,397,398,398,399,399,400,400,401,401,402,402,403,403,404,404,405,405,406,406,406,407,407,408,408,409,409,410,410,411,411,411,412,412,413,413,414,414,415,415,416,416,417,417,418,418,419,420,420,420,421,421,422,423,423,423,424,424,425,425,426,426,427,427,428,428,429,429,430,430,431,432,432,433,433,434,434,435,435,436,437,437,438,438,439,440,440,441,441,442,442,443,443,443,444,444,445,445,446,446,447,448,448,449,449,450,451,451,452,453,453,454,454,455,455,456,457,457,458,459,459,460,461,461,462,462,463,463,464,465,465,466,467,467,468,469,469,470,470,471,472,472,473,473,474,475,475,476,476,477,478,479,479,480,481,481,482,483,483,484,485,485,486,487,488,488,489,489,490,490,491,492,492,493,493,494,495,496,496,497,498,498,499,500,501,502,503,504,505,506,507,507,508,508,509,510,511,511,512,513,514,514,515,516,517,517,518,519,520,520,521,521,522,522,523,523,524,524,525,526,527,528,0,0,0,0,0,0,0,0,0,0,0,0,0,0,0,0,0,0,0,0,0,0,0,0,0,0,0,0,0,0,0,0,0,0,0,0,0,0,0,0,0,0,0,0,0,0,0,0,0,0,0,0,0,0,0,0,0,0,0,0,0,0,0,0,0,0,0,0,0,0,0,0,0,0,0,0,0,0,0,0,0,0,0,0,0,0,0,0,0,0,0,0,0,0,0,0,0,0,0
285,284,284,284,283,284,284,284,284,284,284,284,285,285,285,286,286,286,286,287,287,287,288,288,288,289,289,289,289,290,290,290,291,291,291,292,292,292,292,293,293,293,294,294,294,294,295,295,295,296,296,296,297,297,297,298,298,298,299,299,299,300,300,300,300,301,301,301,302,302,302,303,303,303,304,304,304,305,305,306,306,306,307,307,307,308,308,308,309,309,309,310,310,310,311,311,311,311,312,312,312,313,313,313,314,314,314,315,315,315,316,316,316,317,317,318,318,318,318,319,319,319,319,320,320,320,321,321,321,322,322,323,323,323,324,324,325,325,325,326,326,326,327,327,327,328,328,328,329,329,329,330,330,330,331,331,331,332,332,333,333,333,334,334,334,335,335,335,336,336,336,337,337,338,338,338,339,339,339,340,340,341,341,341,342,342,342,343,343,343,344,344,345,345,346,346,346,347,347,348,348,348,349,349,349,350,350,351,351,351,352,352,353,353,353,354,354,355,355,355,356,356,356,357,357,358,358,358,359,359,360,360,360,361,361,361,362,362,363,363,363,364,364,365,365,365,366,366,367,367,368,368,368,369,369,370,370,370,371,371,372,372,372,373,373,374,374,374,375,375,375,376,376,377,377,378,378,379,379,379,380,380,381,381,382,382,382,383,383,384,384,384,385,385,386,386,387,387,388,388,388,389,389,390,390,391,391,392,392,393,393,393,394,394,395,395,396,396,396,397,397,398,398,399,399,400,400,400,401,402,402,403,403,404,404,405,405,406,406,406,407,407,408,408,409,409,410,410,411,411,411,412,412,413,413,414,414,415,415,416,416,417,417,418,418,419,420,420,420,421,421,422,423,423,424,424,424,425,425,426,426,427,427,428,428,429,429,430,430,431,432,432,433,433,434,434,435,436,436,437,437,438,439,439,440,440,441,441,442,442,443,443,444,444,444,445,445,446,446,447,448,448,449,450,450,451,451,452,453,453,454,454,455,456,456,457,457,458,459,459,460,461,461,462,462,463,463,464,465,466,466,467,467,468,469,469,470,471,471,472,472,473,474,474,475,475,476,477,477,478,479,479,480,480,481,482,482,483,484,484,485,486,487,488,488,489,489,490,490,491,492,492,493,494,494,495,496,496,497,498,499,499,500,501,502,504,505,506,506,507,507,508,508,509,510,511,511,512,513,514,514,515,516,517,517,518,519,520,520,521,522,522,522,523,523,523,524,525,527,527,529,0,0,0,0,0,0,0,0,0,0,0,0,0,0,0,0,0,0,0,0,0,0,0,0,0,0,0,0,0,0,0,0,0,0,0,0,0,0,0,0,0,0,0,0,0,0,0,0,0,0,0,0,0,0,0,0,0,0,0,0,0,0,0,0,0,0,0,0,0,0,0,0,0,0,0,0,0,0,0,0,0,0,0,0,0,0,0,0,0,0,0,0,0,0,0,0,0,0,0
285,285,285,284,284,284,284,284,284,285,285,285,285,285,286,286,286,286,286,287,287,287,288,288,289,289,289,289,290,290,290,291,291,291,291,292,292,292,292,293,293,293,294,294,294,295,295,295,296,296,296,297,297,297,297,298,298,298,299,299,300,300,300,300,301,301,301,301,302,302,302,303,303,303,304,304,304,305,305,306,306,307,307,307,307,308,308,308,309,309,309,310,310,310,311,311,311,311,312,312,313,313,313,313,314,314,315,315,315,316,316,316,316,317,317,318,318,318,318,319,319,319,319,320,320,320,321,321,321,322,322,323,323,323,324,324,325,325,325,326,326,326,327,327,327,328,328,328,329,329,329,330,330,331,331,331,332,332,332,333,333,333,334,334,334,335,335,335,336,336,337,337,337,338,338,338,339,339,339,340,340,341,341,341,342,342,342,343,343,343,344,344,345,345,346,346,346,347,347,347,348,348,349,349,349,350,350,351,351,351,352,352,353,353,353,354,354,355,355,355,356,356,356,357,357,358,358,358,359,359,360,360,360,361,361,361,362,362,363,363,363,364,364,365,365,365,366,366,367,367,368,368,368,369,369,370,370,370,371,371,372,372,372,373,373,374,374,374,375,375,375,376,376,377,377,378,378,379,379,379,380,380,381,381,382,382,382,383,383,384,384,384,385,385,386,386,387,387,388,388,388,389,389,390,390,391,391,392,392,393,393,393,394,394,395,395,396,396,396,397,397,398,398,399,399,400,400,401,401,402,402,403,403,404,404,405,405,406,406,406,407,407,408,408,409,409,410,410,411,411,412,412,412,413,413,414,414,415,415,416,416,417,417,418,418,419,420,420,420,421,421,422,423,423,424,424,424,425,425,426,426,427,427,428,428,429,429,430,430,431,432,432,433,433,434,435,435,436,436,437,437,438,439,439,440,440,441,441,442,442,443,443,444,444,445,445,445,446,446,447,448,448,449,450,450,451,452,452,453,453,454,454,455,456,456,457,458,458,459,459,460,461,461,462,462,463,463,464,465,466,466,467,468,468,469,469,470,471,471,472,473,473,474,474,475,475,476,477,477,478,479,479,480,480,481,482,482,483,484,484,485,486,487,487,488,489,489,490,490,491,492,492,493,494,494,495,496,497,497,498,499,499,500,501,502,504,505,506,506,507,507,508,509,509,510,511,512,512,513,514,514,515,516,517,517,518,519,520,520,521,522,522,523,523,523,523,524,525,527,529,529,0,0,0,0,0,0,0,0,0,0,0,0,0,0,0,0,0,0,0,0,0,0,0,0,0,0,0,0,0,0,0,0,0,0,0,0,0,0,0,0,0,0,0,0,0,0,0,0,0,0,0,0,0,0,0,0,0,0,0,0,0,0,0,0,0,0,0,0,0,0,0,0,0,0,0,0,0,0,0,0,0,0,0,0,0,0,0,0,0,0,0,0,0,0,0,0,0,0,0
285,285,285,284,284,284,285,285,285,285,285,285,285,286,286,286,286,287,287,287,287,287,288,288,289,289,289,289,290,290,290,291,291,291,292,292,292,292,292,293,293,294,294,294,295,295,295,295,296,296,296,297,297,297,298,298,298,299,299,299,300,300,300,301,301,301,301,301,302,302,302,303,303,303,304,304,305,305,306,306,306,307,307,307,308,308,308,308,309,309,309,310,310,310,311,311,311,312,312,312,313,313,313,314,314,314,315,315,315,316,316,316,317,317,317,318,318,318,318,319,319,319,320,320,320,320,321,321,322,322,322,323,323,323,324,324,325,325,325,326,326,326,327,327,327,328,328,328,329,329,329,330,330,331,331,331,332,332,332,333,333,333,334,334,334,335,335,335,336,336,337,337,337,338,338,338,339,339,339,340,340,341,341,341,342,342,342,343,343,343,344,344,345,345,346,346,346,347,347,347,348,348,349,349,350,350,350,351,351,351,352,352,353,353,353,354,354,355,355,355,356,356,356,357,357,358,358,358,359,359,360,360,360,361,361,361,362,362,363,363,363,364,364,365,365,365,366,366,367,367,368,368,368,369,369,370,370,370,371,371,371,372,372,373,373,374,374,374,375,375,376,376,376,377,377,378,378,379,379,379,380,380,381,381,382,382,382,383,383,384,384,385,385,385,386,386,387,387,388,388,388,389,389,390,390,391,391,392,392,393,393,394,394,394,395,395,396,396,396,397,397,398,398,399,399,400,400,401,401,402,402,403,403,404,404,405,405,406,406,406,407,407,408,408,409,409,410,410,411,411,412,412,412,413,413,414,414,415,415,416,416,417,417,418,418,419,420,420,420,421,421,422,423,423,424,424,424,425,425,426,426,427,427,428,428,429,429,430,430,431,432,432,433,434,434,435,435,436,436,437,437,438,439,439,440,440,441,441,442,442,443,443,444,444,445,445,445,446,447,447,448,449,449,450,450,451,452,452,453,453,454,455,455,456,456,457,458,458,459,460,460,461,461,462,462,463,464,464,465,466,466,467,468,468,469,469,470,471,471,472,473,473,474,475,475,476,476,477,477,478,479,479,480,480,481,482,482,483,484,484,485,486,487,487,488,489,489,490,490,491,492,492,493,494,495,495,496,497,497,498,499,500,500,501,503,504,505,506,506,507,508,508,509,509,510,511,512,512,513,514,515,515,516,517,517,518,519,520,520,0,0,522,523,523,523,523,524,525,527,529,530,0,0,0,0,0,0,0,0,0,0,0,0,0,0,0,0,0,0,0,0,0,0,0,0,0,0,0,0,0,0,0,0,0,0,0,0,0,0,0,0,0,0,0,0,0,0,0,0,0,0,0,0,0,0,0,0,0,0,0,0,0,0,0,0,0,0,0,0,0,0,0,0,0,0,0,0,0,0,0,0,0,0,0,0,0,0,0,0,0,0,0,0,0,0,0,0,0,0,0
285,285,285,285,285,285,285,285,285,285,285,286,286,286,286,286,286,287,287,287,287,288,288,288,289,289,289,290,290,290,291,291,291,291,292,292,292,292,293,293,293,294,294,294,295,295,295,296,296,296,296,297,297,297,298,298,298,299,299,300,300,300,300,301,301,301,301,302,302,302,303,303,303,304,304,304,305,305,306,306,306,307,307,307,308,308,308,309,309,309,309,310,310,310,311,311,311,312,312,312,313,313,313,314,314,314,315,315,315,316,316,316,317,317,317,318,318,318,319,319,319,319,320,320,320,321,321,321,322,322,322,323,323,323,324,324,325,325,325,326,326,326,327,327,327,328,328,328,329,329,330,330,330,331,331,331,332,332,332,333,333,333,334,334,334,335,335,335,336,336,337,337,337,338,338,338,339,339,339,340,340,341,341,341,342,342,342,343,343,344,344,344,345,345,346,346,346,347,347,347,348,348,349,349,350,350,350,351,351,351,352,352,353,353,353,354,354,354,355,355,356,356,356,357,357,357,358,358,359,359,360,360,360,361,361,361,362,362,363,363,363,364,364,365,365,365,366,366,367,367,367,368,368,369,369,370,370,370,371,371,371,372,372,373,373,374,374,374,375,375,376,376,376,377,377,378,378,379,379,379,380,380,381,381,382,382,382,383,383,384,384,385,385,385,386,386,387,387,388,388,388,389,389,390,390,391,391,392,392,393,393,394,394,394,395,395,396,396,396,397,397,398,398,399,399,400,400,401,401,402,402,403,403,404,404,405,405,406,406,407,407,407,408,408,409,409,410,410,411,411,412,412,412,413,413,414,414,415,415,416,416,417,417,418,418,419,419,420,420,421,421,422,423,423,424,424,425,425,426,426,426,427,427,428,428,429,429,430,430,431,432,432,433,434,434,435,435,436,436,437,437,438,439,439,440,440,441,441,442,442,443,443,444,444,445,445,446,446,447,447,448,449,449,450,450,451,452,452,453,454,454,455,455,456,457,457,458,458,459,460,460,461,461,462,462,463,464,464,465,466,466,467,468,468,469,470,470,471,471,472,473,473,474,475,475,476,476,477,477,478,479,479,480,480,481,482,482,483,483,484,485,486,487,487,488,489,489,490,490,491,492,492,493,494,495,496,496,497,498,498,499,500,501,501,503,504,505,506,507,507,508,508,509,510,510,511,512,513,513,514,515,515,516,517,517,518,519,520,0,0,0,0,0,523,523,523,524,525,527,530,0,0,0,0,0,0,0,0,0,0,0,0,0,0,0,0,0,0,0,0,0,0,0,0,0,0,0,0,0,0,0,0,0,0,0,0,0,0,0,0,0,0,0,0,0,0,0,0,0,0,0,0,0,0,0,0,0,0,0,0,0,0,0,0,0,0,0,0,0,0,0,0,0,0,0,0,0,0,0,0,0,0,0,0,0,0,0,0,0,0,0,0,0,0,0,0,0,0,0,0
285,285,285,285,285,285,285,285,285,285,286,286,286,286,286,286,287,287,287,287,287,288,288,289,289,289,290,290,290,290,291,291,291,292,292,292,292,292,293,293,293,294,294,295,295,295,296,296,296,296,297,297,297,298,298,298,299,299,299,300,300,300,301,301,301,301,301,302,302,302,303,303,304,304,304,305,305,305,306,306,307,307,307,307,308,308,308,309,309,309,310,310,310,310,311,311,311,312,312,312,313,313,313,314,314,314,315,315,315,316,316,316,317,317,317,318,318,318,319,319,319,319,320,320,320,321,321,321,322,322,323,323,323,324,324,324,325,325,325,326,326,326,327,327,327,328,328,328,329,329,330,330,330,331,331,331,332,332,332,333,333,333,334,334,334,335,335,336,336,336,337,337,337,338,338,338,339,339,340,340,340,341,341,341,342,342,343,343,343,344,344,344,345,345,346,346,346,347,347,347,348,348,349,349,350,350,350,351,351,352,352,352,353,353,353,354,354,354,355,355,356,356,356,357,357,358,358,358,359,359,360,360,360,361,361,362,362,362,363,363,363,364,364,365,365,365,366,366,367,367,367,368,368,369,369,370,370,370,371,371,371,372,372,373,373,374,374,374,375,375,376,376,376,377,377,378,378,379,379,380,380,380,381,381,382,382,382,383,383,384,384,385,385,385,386,386,387,387,388,388,388,389,389,390,390,391,391,392,392,393,393,394,394,394,395,395,396,396,396,397,397,398,398,399,399,400,400,401,401,402,402,403,403,404,404,405,405,406,406,407,407,407,408,408,409,409,410,410,411,411,412,412,412,413,413,414,414,415,415,416,416,417,417,418,418,419,419,420,420,421,421,422,422,423,424,424,425,425,426,426,426,427,427,428,428,429,429,430,431,431,432,432,433,434,434,435,435,436,436,437,437,438,439,439,440,440,441,441,442,442,443,443,444,444,445,445,446,446,447,447,448,449,449,450,451,451,452,452,453,454,454,455,456,456,457,457,458,458,459,460,460,461,461,462,462,463,464,465,465,466,466,467,468,468,469,470,470,471,472,472,473,474,474,475,475,476,476,477,477,478,479,479,480,481,481,482,482,483,483,484,485,486,486,487,488,489,489,490,490,491,492,493,493,494,495,496,496,497,498,498,499,500,501,502,503,504,505,506,507,507,508,509,509,510,510,511,512,513,513,514,515,515,516,517,517,518,519,520,0,0,0,0,0,0,0,523,523,525,527,0,0,0,0,0,0,0,0,0,0,0,0,0,0,0,0,0,0,0,0,0,0,0,0,0,0,0,0,0,0,0,0,0,0,0,0,0,0,0,0,0,0,0,0,0,0,0,0,0,0,0,0,0,0,0,0,0,0,0,0,0,0,0,0,0,0,0,0,0,0,0,0,0,0,0,0,0,0,0,0,0,0,0,0,0,0,0,0,0,0,0,0,0,0,0,0,0,0,0,0,0
286,286,285,285,285,285,285,285,285,286,286,286,286,286,286,287,287,287,287,287,288,288,289,289,289,289,290,290,290,290,291,291,291,292,292,292,292,293,293,293,294,294,295,295,295,295,296,296,296,296,297,297,297,298,298,298,299,299,300,300,300,301,301,301,301,301,302,302,302,303,303,303,304,304,304,305,305,305,306,306,307,307,307,308,308,308,308,309,309,309,310,310,310,311,311,311,311,312,312,312,313,313,314,314,314,315,315,315,315,316,316,316,317,317,317,318,318,318,319,319,319,320,320,320,320,321,321,321,322,322,323,323,323,324,324,324,325,325,325,326,326,326,327,327,327,328,328,328,329,329,330,330,330,331,331,331,332,332,332,333,333,333,334,334,334,335,335,336,336,336,337,337,337,338,338,338,339,339,340,340,340,341,341,342,342,342,343,343,343,344,344,344,345,345,346,346,346,347,347,347,348,348,349,349,350,350,351,351,351,352,352,352,353,353,353,354,354,354,355,355,356,356,356,357,357,358,358,358,359,359,360,360,360,361,361,362,362,362,363,363,363,364,364,365,365,365,366,366,367,367,367,368,368,369,369,370,370,370,371,371,371,372,372,373,373,374,374,374,375,375,376,376,377,377,377,378,378,379,379,380,380,380,381,381,382,382,382,383,383,384,384,385,385,385,386,386,387,387,388,388,388,389,389,390,390,391,391,392,392,393,393,394,394,394,395,395,396,396,396,397,397,398,398,399,399,400,400,401,401,402,402,403,404,404,404,405,405,406,406,407,407,407,408,408,409,409,410,410,411,411,411,412,412,413,413,414,414,415,415,416,416,417,417,418,418,419,419,420,420,421,421,422,422,423,424,424,425,425,426,426,427,427,427,428,429,429,430,430,431,431,432,433,433,434,434,435,435,436,436,437,438,438,439,439,440,440,441,441,442,442,443,443,444,444,445,445,446,446,447,448,448,449,449,450,451,451,452,453,453,454,455,455,456,456,457,457,458,458,459,460,460,461,461,462,463,463,464,465,465,466,467,467,468,468,469,470,470,471,472,472,473,474,474,475,475,476,476,477,478,478,479,479,480,481,481,482,482,483,483,484,485,486,486,487,488,488,489,490,490,491,492,493,494,494,495,496,497,497,498,498,499,500,501,502,503,504,505,506,507,507,508,509,509,510,511,511,512,513,514,514,515,515,516,517,517,518,520,0,521,0,0,0,0,0,0,0,0,0,0,0,0,0,0,0,0,0,0,0,0,0,0,0,0,0,0,0,0,0,0,0,0,0,0,0,0,0,0,0,0,0,0,0,0,0,0,0,0,0,0,0,0,0,0,0,0,0,0,0,0,0,0,0,0,0,0,0,0,0,0,0,0,0,0,0,0,0,0,0,0,0,0,0,0,0,0,0,0,0,0,0,0,0,0,0,0,0,0,0,0,0,0,0,0,0,0,0,0,0,0,0
286,286,286,285,285,285,285,285,286,286,286,286,286,286,286,287,287,287,287,288,288,288,289,289,289,289,290,290,290,290,291,291,291,292,292,292,293,293,293,294,294,294,295,295,295,296,296,296,296,297,297,297,298,298,298,299,299,299,300,300,300,301,301,301,301,302,302,302,302,303,303,304,304,304,305,305,305,306,306,306,307,307,307,308,308,308,309,309,309,309,310,310,310,311,311,311,312,312,312,313,313,313,314,314,314,315,315,315,316,316,316,316,317,317,318,318,318,319,319,319,320,320,320,320,321,321,321,322,322,322,323,323,323,324,324,325,325,325,326,326,326,327,327,327,327,328,328,329,329,329,330,330,331,331,331,332,332,332,332,333,333,333,334,334,334,335,335,336,336,336,337,337,338,338,338,339,339,339,340,340,340,341,341,342,342,342,343,343,343,344,344,345,345,345,346,346,346,347,347,347,348,348,349,349,350,350,351,351,351,352,352,352,353,353,353,354,354,354,355,355,356,356,356,357,357,358,358,358,359,359,360,360,360,361,361,362,362,362,363,363,364,364,364,365,365,365,366,366,367,367,368,368,368,369,369,370,370,370,371,371,371,372,372,373,373,374,374,375,375,375,376,376,377,377,377,378,378,379,379,380,380,380,381,381,382,382,382,383,383,384,384,385,385,386,386,386,387,387,388,388,388,389,389,390,390,391,391,392,392,393,393,394,394,394,395,395,396,396,396,397,397,398,398,399,399,400,400,401,401,402,402,403,404,404,404,405,405,406,406,407,407,407,408,408,409,409,410,410,410,411,411,412,412,413,413,414,414,415,415,416,416,417,417,418,418,419,420,420,420,421,421,422,422,423,424,424,425,425,426,426,427,427,428,428,429,429,430,430,431,431,432,433,433,434,434,435,435,436,437,437,438,438,439,439,440,440,441,442,442,443,443,443,444,444,445,445,446,447,447,448,448,449,450,450,451,451,452,453,453,454,455,455,456,456,457,457,458,458,459,460,460,461,461,462,463,463,464,465,465,466,467,467,468,469,469,470,470,471,472,472,473,474,474,475,475,476,477,477,478,478,479,479,480,481,481,482,482,483,483,484,485,486,486,487,488,488,489,490,490,491,492,493,494,495,495,496,497,497,498,499,499,500,501,502,503,504,505,506,507,507,508,509,509,510,511,511,512,513,514,514,515,515,516,517,518,519,520,521,521,522,0,0,0,0,0,0,0,0,0,0,0,0,0,0,0,0,0,0,0,0,0,0,0,0,0,0,0,0,0,0,0,0,0,0,0,0,0,0,0,0,0,0,0,0,0,0,0,0,0,0,0,0,0,0,0,0,0,0,0,0,0,0,0,0,0,0,0,0,0,0,0,0,0,0,0,0,0,0,0,0,0,0,0,0,0,0,0,0,0,0,0,0,0,0,0,0,0,0,0,0,0,0,0,0,0,0,0,0,0,0
0,0,0,0,0,0,0,286,286,286,286,286,286,286,287,287,287,287,288,288,288,289,289,289,289,290,290,290,290,290,291,291,291,292,292,293,293,293,293,294,294,294,295,295,296,296,296,296,297,297,297,298,298,298,299,299,299,300,300,300,301,301,301,301,302,302,302,302,303,303,303,304,304,304,305,305,305,306,306,307,307,307,308,308,308,308,309,309,309,310,310,310,310,311,311,311,312,312,312,313,313,313,314,314,315,315,315,315,316,316,316,317,317,317,318,318,318,319,319,319,320,320,320,321,321,321,321,322,322,323,323,323,324,324,324,325,325,325,326,326,326,327,327,327,328,328,328,329,329,329,330,330,331,331,331,332,332,332,333,333,333,334,334,334,335,335,335,336,336,337,337,337,338,338,338,339,339,339,340,340,341,341,341,342,342,342,343,343,343,344,344,345,345,345,346,346,346,347,347,347,348,348,349,349,350,350,351,351,351,352,352,352,353,353,353,354,354,354,355,355,356,356,356,357,357,358,358,358,359,359,360,360,360,361,361,362,362,362,363,363,364,364,364,365,365,365,366,366,367,367,368,368,368,369,369,370,370,370,371,371,372,372,372,373,373,374,374,375,375,375,376,376,377,377,378,378,378,379,379,380,380,380,381,381,382,382,382,383,383,384,384,385,385,386,386,386,387,387,388,388,388,389,389,390,390,391,391,392,392,393,393,394,394,394,395,395,396,396,396,397,397,398,398,399,399,400,400,401,401,402,402,403,404,404,404,405,405,406,406,407,407,407,408,408,409,409,410,410,410,411,411,412,412,413,413,414,414,415,415,416,416,417,417,418,418,419,420,420,420,421,421,422,422,423,424,424,425,425,426,426,427,427,428,428,429,429,430,431,431,432,432,433,433,434,434,435,435,436,437,437,438,438,439,439,440,440,441,442,442,443,443,444,444,444,445,446,446,447,447,448,448,449,450,450,451,451,452,453,453,454,455,455,456,456,457,457,458,459,459,460,460,461,462,462,463,464,464,465,466,466,467,467,468,469,469,470,470,471,472,472,473,474,474,475,475,476,477,477,478,478,479,480,480,481,481,482,482,483,483,484,485,486,486,487,488,488,489,490,491,491,492,493,494,495,496,496,497,498,498,499,499,500,501,502,503,504,505,506,507,507,508,509,509,510,511,511,512,513,514,514,515,515,516,517,517,519,520,521,521,522,522,0,0,0,0,0,0,0,0,0,0,0,0,0,0,0,0,0,0,0,0,0,0,0,0,0,0,0,0,0,0,0,0,0,0,0,0,0,0,0,0,0,0,0,0,0,0,0,0,0,0,0,0,0,0,0,0,0,0,0,0,0,0,0,0,0,0,0,0,0,0,0,0,0,0,0,0,0,0,0,0,0,0,0,0,0,0,0,0,0,0,0,0,0,0,0,0,0,0,0,0,0,0,0,0,0,0,0,0,0
0,0,0,0,0,0,0,0,0,0,0,0,0,0,0,0,0,0,0,0,0,289,289,289,289,290,290,290,290,290,290,291,292,292,292,293,293,293,294,294,294,295,295,295,296,296,296,297,297,297,297,298,298,299,299,299,300,300,300,301,301,301,301,302,302,302,302,303,303,303,303,304,304,305,305,305,306,306,306,307,307,307,308,308,308,309,309,309,309,310,310,310,311,311,311,311,312,312,313,313,313,314,314,314,315,315,315,316,316,316,316,317,317,318,318,318,319,319,319,320,320,320,321,321,321,321,322,322,322,323,323,323,324,324,324,325,325,326,326,326,326,327,327,327,328,328,328,329,329,330,330,330,331,331,332,332,332,332,333,333,333,334,334,334,335,335,335,336,336,337,337,337,338,338,338,339,339,339,340,340,341,341,341,342,342,342,343,343,344,344,344,345,345,345,346,346,346,347,347,347,348,348,349,349,350,350,351,351,351,352,352,352,353,353,353,354,354,354,355,355,356,356,356,357,357,358,358,358,359,359,360,360,361,361,361,362,362,362,363,363,364,364,364,365,365,365,366,366,367,367,368,368,368,369,369,370,370,370,371,371,372,372,372,373,373,374,374,375,375,375,376,376,377,377,378,378,378,379,379,380,380,381,381,381,382,382,383,383,383,384,384,385,385,386,386,387,387,387,388,388,389,389,389,390,390,391,391,392,392,393,393,394,394,394,395,395,396,396,396,397,397,398,398,399,399,400,400,401,402,402,402,403,404,404,404,405,405,406,406,407,407,408,408,408,409,409,410,410,411,411,411,412,412,413,413,414,414,415,415,416,416,417,418,418,419,419,420,420,421,421,421,422,423,423,424,424,425,425,426,426,427,427,428,428,429,429,430,431,431,432,432,433,433,434,434,435,435,436,437,437,438,438,439,439,440,441,441,442,442,443,443,444,444,445,445,446,446,447,447,448,449,449,450,450,451,452,452,453,454,454,455,455,456,457,457,457,458,459,459,460,460,461,462,462,463,464,464,465,466,466,467,467,468,469,469,470,470,471,472,472,473,474,474,475,475,476,477,477,478,478,479,480,480,481,481,482,482,483,484,484,485,486,486,487,488,488,489,490,491,491,492,493,494,495,496,496,497,498,498,499,500,500,501,502,503,504,505,506,507,507,508,509,509,510,511,511,512,513,514,514,515,515,516,516,517,518,520,521,521,522,0,0,0,0,0,0,0,0,0,0,0,0,0,0,0,0,0,0,0,0,0,0,0,0,0,0,0,0,0,0,0,0,0,0,0,0,0,0,0,0,0,0,0,0,0,0,0,0,0,0,0,0,0,0,0,0,0,0,0,0,0,0,0,0,0,0,0,0,0,0,0,0,0,0,0,0,0,0,0,0,0,0,0,0,0,0,0,0,0,0,0,0,0,0,0,0,0,0,0,0,0,0,0,0,0,0,0,0,0,0
0,0,0,0,0,0,0,0,0,0,0,0,0,0,0,0,0,0,0,0,0,0,0,0,0,0,290,290,290,290,290,291,292,292,293,293,293,294,294,294,294,295,295,295,296,296,297,297,297,297,298,298,299,299,299,300,300,300,301,301,301,301,302,302,302,302,302,303,303,303,304,304,304,305,305,305,306,306,306,307,307,308,308,308,308,309,309,309,309,310,310,310,311,311,311,312,312,312,313,313,313,314,314,315,315,315,315,316,316,316,317,317,317,318,318,319,319,319,320,320,320,321,321,321,321,322,322,322,323,323,323,324,324,324,325,325,325,326,326,326,327,327,327,328,328,328,329,329,329,330,330,331,331,331,332,332,332,333,333,333,333,334,334,334,335,335,336,336,336,337,337,337,338,338,338,339,339,339,340,340,341,341,342,342,342,343,343,343,344,344,344,345,345,345,346,346,346,347,347,347,348,348,349,349,350,350,351,351,351,352,352,352,353,353,353,354,354,354,355,355,356,356,356,357,357,358,358,358,359,359,360,360,361,361,361,362,362,363,363,363,364,364,364,365,365,366,366,366,367,367,368,368,368,369,369,370,370,370,371,371,372,372,373,373,373,374,374,375,375,375,376,376,377,377,378,378,378,379,379,380,380,381,381,381,382,382,383,383,384,384,384,385,385,386,386,387,387,387,388,388,389,389,389,390,390,391,391,392,392,393,393,394,394,394,395,395,396,396,396,397,397,398,398,399,399,400,401,401,402,402,402,403,403,404,404,405,405,406,406,407,407,408,408,408,409,409,410,410,411,411,411,412,412,413,413,414,414,415,415,416,417,417,418,418,419,419,420,420,421,421,422,422,423,423,424,424,425,425,426,426,427,427,428,428,429,430,430,431,431,432,432,433,433,434,434,435,436,436,437,437,438,438,439,439,440,441,441,442,442,443,443,444,444,445,445,446,446,447,448,448,449,449,450,450,451,452,452,453,454,454,455,456,456,457,457,458,458,459,459,460,461,461,462,463,463,464,465,465,466,466,467,467,468,469,469,470,470,471,472,472,473,474,474,475,475,476,477,477,478,479,479,480,480,481,482,482,483,483,484,484,485,486,487,487,488,489,489,490,491,492,492,493,494,495,496,497,497,498,498,499,500,500,501,502,503,504,505,506,507,507,508,509,509,510,511,512,512,513,514,514,515,515,516,516,517,517,519,520,521,0,0,0,0,0,0,0,0,0,0,0,0,0,0,0,0,0,0,0,0,0,0,0,0,0,0,0,0,0,0,0,0,0,0,0,0,0,0,0,0,0,0,0,0,0,0,0,0,0,0,0,0,0,0,0,0,0,0,0,0,0,0,0,0,0,0,0,0,0,0,0,0,0,0,0,0,0,0,0,0,0,0,0,0,0,0,0,0,0,0,0,0,0,0,0,0,0,0,0,0,0,0,0,0,0,0,0,0,0,0,0
0,0,0,0,0,0,0,0,0,0,0,0,0,0,0,0,0,0,0,0,0,0,0,0,0,0,0,0,0,0,0,0,0,292,293,293,293,294,294,294,294,295,295,296,296,296,297,297,297,297,298,299,299,299,300,300,300,301,301,301,301,302,302,302,302,302,303,303,303,304,304,304,305,305,305,306,306,306,307,307,307,308,308,308,309,309,309,309,310,310,310,310,311,311,311,312,312,313,313,313,314,314,314,315,315,315,316,316,316,317,317,317,318,318,318,319,319,320,320,320,321,321,321,321,322,322,322,323,323,323,324,324,324,325,325,325,326,326,326,327,327,327,328,328,328,329,329,329,330,330,330,331,331,332,332,332,332,333,333,333,334,334,334,335,335,335,336,336,336,337,337,338,338,338,338,339,339,340,340,340,341,341,342,342,342,343,343,343,344,344,344,345,345,345,346,346,346,347,347,348,348,348,349,349,350,350,351,351,351,352,352,352,353,353,353,354,354,354,355,355,356,356,356,357,357,358,358,359,359,359,360,360,361,361,361,362,362,363,363,363,364,364,365,365,365,366,366,366,367,367,368,368,368,369,369,370,370,370,371,371,372,372,373,373,373,374,374,375,375,375,376,376,377,377,378,378,379,379,379,380,380,381,381,381,382,382,383,383,384,384,385,385,385,386,386,387,387,387,388,388,389,389,389,390,390,391,391,392,392,393,393,394,394,394,395,395,396,396,396,397,397,398,398,399,399,400,401,401,402,402,402,403,403,404,404,405,405,406,406,407,407,408,408,408,409,409,410,410,411,411,412,412,412,413,413,414,414,415,416,416,417,417,418,418,419,419,420,420,421,421,422,422,423,423,424,424,425,425,426,426,427,427,428,429,429,430,430,431,431,432,433,433,434,434,435,435,436,436,437,437,438,438,439,440,440,441,441,442,442,443,443,444,444,445,445,446,447,447,448,448,449,450,450,451,451,452,452,453,454,454,455,456,456,457,457,458,458,459,459,460,461,461,462,463,463,464,465,465,466,466,467,467,468,469,469,470,470,471,472,472,473,474,474,475,475,476,477,477,478,479,479,480,480,481,482,482,483,483,484,484,485,486,487,488,488,489,489,490,491,492,492,493,494,495,496,497,497,498,499,499,500,500,501,502,503,504,505,506,506,507,508,508,509,510,511,512,512,513,514,514,515,515,516,516,516,517,517,0,0,0,0,0,0,0,0,0,0,0,0,0,0,0,0,0,0,0,0,0,0,0,0,0,0,0,0,0,0,0,0,0,0,0,0,0,0,0,0,0,0,0,0,0,0,0,0,0,0,0,0,0,0,0,0,0,0,0,0,0,0,0,0,0,0,0,0,0,0,0,0,0,0,0,0,0,0,0,0,0,0,0,0,0,0,0,0,0,0,0,0,0,0,0,0,0,0,0,0,0,0,0,0,0,0,0,0,0,0,0,0,0
0,0,0,0,0,0,0,0,0,0,0,0,0,0,0,0,0,0,0,0,0,0,0,0,0,0,0,0,0,0,0,0,0,0,0,0,0,0,0,0,0,0,295,296,296,297,297,297,297,298,298,299,299,300,300,300,301,301,301,301,302,302,302,302,302,303,303,303,304,304,304,305,305,305,306,306,306,306,307,307,307,308,308,308,309,309,309,309,310,310,310,311,311,311,311,312,312,313,313,314,314,314,315,315,315,315,316,316,316,317,317,318,318,318,319,319,319,320,320,321,321,321,321,322,322,322,322,323,323,323,324,324,324,325,325,325,326,326,326,327,327,327,328,328,328,329,329,330,330,330,331,331,331,332,332,332,333,333,333,333,334,334,334,335,335,335,336,336,337,337,337,338,338,338,339,339,339,340,340,341,341,341,342,342,343,343,343,344,344,344,344,345,345,345,346,346,347,347,347,348,348,349,349,349,350,350,351,351,351,352,352,352,353,353,353,354,354,355,355,355,356,356,356,357,357,358,358,359,359,359,360,360,361,361,361,362,362,363,363,363,364,364,365,365,365,366,366,366,367,367,368,368,368,369,369,370,370,371,371,371,372,372,373,373,374,374,374,375,375,375,376,376,377,377,378,378,379,379,379,380,380,381,381,381,382,382,383,383,384,384,385,385,385,386,386,387,387,387,388,388,389,389,389,390,391,391,391,392,392,393,393,394,394,394,395,395,396,396,397,397,397,398,399,399,400,400,401,401,402,402,403,403,403,404,404,405,405,406,406,407,407,408,408,408,409,409,410,410,411,411,412,412,413,413,414,414,415,415,416,416,417,417,418,418,419,419,420,420,421,421,422,422,423,423,424,424,425,425,426,426,427,428,428,429,429,430,430,431,432,432,433,433,434,434,435,435,436,436,437,437,438,438,439,440,440,441,441,442,442,443,443,444,444,445,446,446,447,447,448,448,449,450,450,451,451,452,452,453,454,454,455,456,456,457,457,458,458,459,459,460,461,461,462,463,463,464,465,465,466,466,467,467,468,469,469,470,470,471,472,472,473,474,474,475,475,476,477,477,478,479,479,480,480,481,482,482,483,483,484,485,486,486,487,488,488,489,490,490,491,492,492,493,494,495,496,497,497,498,498,499,500,500,501,502,503,504,505,505,506,507,508,508,509,510,511,512,512,513,514,514,515,515,516,516,516,517,518,0,0,0,0,0,0,0,0,0,0,0,0,0,0,0,0,0,0,0,0,0,0,0,0,0,0,0,0,0,0,0,0,0,0,0,0,0,0,0,0,0,0,0,0,0,0,0,0,0,0,0,0,0,0,0,0,0,0,0,0,0,0,0,0,0,0,0,0,0,0,0,0,0,0,0,0,0,0,0,0,0,0,0,0,0,0,0,0,0,0,0,0,0,0,0,0,0,0,0,0,0,0,0,0,0,0,0,0,0,0,0,0,0
0,0,0,0,0,0,0,0,0,0,0,0,0,0,0,0,0,0,0,0,0,0,0,0,0,0,0,0,0,0,0,0,0,0,0,0,0,0,0,0,0,0,0,0,0,0,0,0,0,0,0,299,299,300,300,300,301,301,301,301,302,302,302,302,303,303,303,304,304,304,305,305,305,305,306,306,306,307,307,307,308,308,308,309,309,309,309,310,310,310,310,311,311,311,312,312,312,313,313,314,314,314,315,315,315,316,316,316,317,317,317,318,318,319,319,319,320,320,320,321,321,321,322,322,322,322,323,323,323,324,324,324,325,325,325,326,326,326,327,327,327,328,328,328,329,329,329,330,330,331,331,331,332,332,332,333,333,333,333,334,334,334,335,335,335,336,336,336,337,337,337,338,338,338,339,339,339,340,340,341,341,342,342,342,343,343,343,344,344,344,345,345,345,346,346,346,347,347,347,348,348,349,349,350,350,350,351,351,351,352,352,352,353,353,353,354,354,355,355,355,356,356,357,357,357,358,358,359,359,359,360,360,361,361,361,362,362,363,363,364,364,364,365,365,365,366,366,367,367,367,368,368,369,369,369,370,370,371,371,371,372,372,373,373,374,374,374,375,375,375,376,376,377,377,378,378,379,379,380,380,380,381,381,381,382,382,383,383,384,384,385,385,385,386,386,387,387,387,388,388,389,389,390,390,391,391,392,392,392,393,393,393,394,394,395,395,396,396,397,397,398,398,399,399,400,400,401,401,402,402,403,403,404,404,404,405,405,406,406,407,407,408,408,409,409,409,410,410,411,411,412,412,413,413,414,414,415,415,416,416,417,417,418,418,419,419,420,420,421,421,422,422,423,423,424,424,425,426,426,427,427,428,428,429,429,430,430,431,432,432,433,433,434,434,435,435,436,436,437,437,438,438,439,440,440,441,441,442,442,443,443,444,444,445,446,446,447,447,448,449,449,450,450,451,451,452,452,453,454,454,455,456,456,457,457,458,458,459,459,460,461,461,462,463,463,464,465,465,466,466,467,467,468,469,469,470,470,471,472,472,473,474,474,475,475,476,477,477,478,479,479,480,481,481,482,482,483,484,484,485,486,487,487,488,489,489,490,490,491,492,493,493,494,495,496,496,497,498,498,499,500,500,501,502,503,504,505,505,506,507,507,508,509,510,511,512,512,513,514,514,515,515,516,516,516,517,518,0,0,0,0,0,0,0,0,0,0,0,0,0,0,0,0,0,0,0,0,0,0,0,0,0,0,0,0,0,0,0,0,0,0,0,0,0,0,0,0,0,0,0,0,0,0,0,0,0,0,0,0,0,0,0,0,0,0,0,0,0,0,0,0,0,0,0,0,0,0,0,0,0,0,0,0,0,0,0,0,0,0,0,0,0,0,0,0,0,0,0,0,0,0,0,0,0,0,0,0,0,0,0,0,0,0,0,0,0,0,0,0,0
0,0,0,0,0,0,0,0,0,0,0,0,0,0,0,0,0,0,0,0,0,0,0,0,0,0,0,0,0,0,0,0,0,0,0,0,0,0,0,0,0,0,0,0,0,0,0,0,0,0,0,0,0,0,0,0,0,301,301,301,302,302,302,302,303,303,303,304,304,304,305,305,305,306,306,306,306,307,307,307,308,308,308,309,309,309,309,310,310,310,310,311,311,311,312,312,313,313,314,314,314,315,315,315,315,316,316,316,317,317,318,318,318,319,319,319,320,320,321,321,321,321,322,322,322,323,323,323,324,324,324,325,325,325,326,326,326,327,327,327,328,328,328,329,329,329,330,330,330,331,331,332,332,332,332,333,333,333,334,334,334,334,335,335,335,336,336,337,337,337,338,338,338,339,339,339,340,340,340,341,341,342,342,343,343,343,343,344,344,344,345,345,345,346,346,346,347,347,348,348,348,349,349,350,350,350,351,351,351,352,352,352,353,353,354,354,354,355,355,355,356,356,357,357,357,358,358,359,359,359,360,360,361,361,362,362,362,363,363,364,364,364,365,365,366,366,366,367,367,367,368,368,369,369,369,370,370,371,371,371,372,372,373,373,374,374,374,375,375,375,376,376,377,377,378,378,379,379,380,380,380,381,381,381,382,382,383,383,384,384,385,385,386,386,386,387,387,388,388,388,389,389,390,390,391,391,392,392,392,393,393,393,394,394,395,395,396,396,397,397,398,398,399,399,400,400,401,401,402,402,403,403,404,404,404,405,405,406,406,407,407,408,408,409,409,410,410,410,411,411,412,412,413,413,414,414,415,415,416,416,417,417,418,418,419,419,420,420,421,422,422,422,423,423,424,424,425,426,426,427,427,428,428,429,429,430,431,431,432,432,433,433,434,434,435,435,436,436,437,437,438,438,439,440,440,441,441,442,442,443,443,444,445,445,446,446,447,447,448,449,449,450,450,451,451,452,452,453,454,454,455,456,456,457,457,458,458,459,459,460,461,461,462,463,463,464,465,465,466,466,467,467,468,469,469,470,470,471,472,472,473,474,474,475,476,476,477,477,478,479,479,480,481,481,482,483,483,484,485,485,486,487,488,488,489,489,490,491,491,492,493,493,494,495,496,496,497,498,498,499,500,500,501,502,503,503,504,505,506,506,507,508,509,510,511,512,512,513,514,514,515,515,516,516,516,517,518,518,0,0,0,0,0,0,0,0,0,0,0,0,0,0,0,0,0,0,0,0,0,0,0,0,0,0,0,0,0,0,0,0,0,0,0,0,0,0,0,0,0,0,0,0,0,0,0,0,0,0,0,0,0,0,0,0,0,0,0,0,0,0,0,0,0,0,0,0,0,0,0,0,0,0,0,0,0,0,0,0,0,0,0,0,0,0,0,0,0,0,0,0,0,0,0,0,0,0,0,0,0,0,0,0,0,0,0,0,0,0,0,0
0,0,0,0,0,0,0,0,0,0,0,0,0,0,0,0,0,0,0,0,0,0,0,0,0,0,0,0,0,0,0,0,0,0,0,0,0,0,0,0,0,0,0,0,0,0,0,0,0,0,0,0,0,0,0,0,0,0,0,0,0,0,0,0,0,303,304,304,304,305,305,305,305,306,306,306,307,307,307,307,308,308,308,309,309,309,309,310,310,310,311,311,311,311,312,312,313,313,314,314,314,315,315,315,316,316,316,317,317,317,318,318,319,319,319,320,320,320,321,321,321,322,322,322,322,323,323,323,324,324,324,325,325,325,326,326,326,327,327,327,328,328,328,329,329,329,330,330,331,331,331,332,332,332,333,333,333,334,334,334,334,335,335,335,336,336,336,337,337,337,338,338,338,339,339,339,340,340,341,341,341,342,342,343,343,343,344,344,344,345,345,345,345,346,346,347,347,347,348,348,349,349,349,350,350,351,351,351,352,352,352,353,353,353,354,354,354,355,355,356,356,356,357,357,358,358,358,359,359,360,360,360,361,361,362,362,362,363,363,364,364,365,365,365,366,366,366,367,367,368,368,368,369,369,369,370,370,371,371,372,372,372,373,373,374,374,374,375,375,376,376,376,377,377,378,378,379,379,380,380,380,381,381,382,382,382,383,383,384,384,385,385,386,386,387,387,387,388,388,388,389,389,390,390,391,391,392,392,392,393,393,394,394,394,395,395,396,396,397,397,398,398,399,399,400,400,401,401,402,402,403,403,404,404,405,405,405,406,407,407,407,408,408,409,409,410,410,411,411,411,412,412,413,413,414,414,415,415,416,416,417,417,418,418,419,420,420,421,421,422,422,422,423,423,424,425,425,426,426,427,427,428,428,429,430,430,431,431,432,432,433,433,434,434,435,435,436,436,437,437,438,439,439,440,440,441,441,442,442,443,443,444,445,445,446,446,447,448,448,449,449,450,450,451,451,452,452,453,454,454,455,456,456,457,457,458,458,459,460,460,461,461,462,463,464,464,465,465,466,466,467,467,468,469,469,470,470,471,472,472,473,474,474,475,476,476,477,478,478,479,479,480,481,481,482,483,483,484,485,486,486,487,488,488,489,490,490,491,491,492,493,493,494,495,496,496,497,498,498,499,499,500,501,502,502,503,504,505,505,506,507,508,509,510,511,512,512,513,514,514,515,515,516,516,516,517,517,518,518,0,0,0,0,0,0,0,0,0,0,0,0,0,0,0,0,0,0,0,0,0,0,0,0,0,0,0,0,0,0,0,0,0,0,0,0,0,0,0,0,0,0,0,0,0,0,0,0,0,0,0,0,0,0,0,0,0,0,0,0,0,0,0,0,0,0,0,0,0,0,0,0,0,0,0,0,0,0,0,0,0,0,0,0,0,0,0,0,0,0,0,0,0,0,0,0,0,0,0,0,0,0,0,0,0,0,0,0,0,0,0
0,0,0,0,0,0,0,0,0,0,0,0,0,0,0,0,0,0,0,0,0,0,0,0,0,0,0,0,0,0,0,0,0,0,0,0,0,0,0,0,0,0,0,0,0,0,0,0,0,0,0,0,0,0,0,0,0,0,0,0,0,0,0,0,0,0,0,0,0,0,0,0,0,0,0,0,0,307,307,308,308,308,309,309,309,309,310,310,310,310,311,311,311,312,312,312,313,314,314,314,315,315,315,315,316,316,316,317,317,318,318,318,319,319,320,320,320,321,321,321,322,322,322,322,323,323,323,324,324,324,325,325,325,325,326,326,327,327,327,328,328,328,329,329,329,330,330,330,331,331,332,332,332,333,333,333,333,334,334,334,335,335,335,336,336,336,337,337,337,338,338,338,339,339,339,340,340,340,341,341,342,342,342,343,343,344,344,344,344,345,345,345,346,346,346,347,347,347,348,348,349,349,350,350,350,351,351,351,352,352,352,353,353,353,354,354,355,355,355,356,356,356,357,357,358,358,359,359,359,360,360,360,361,361,362,362,363,363,363,364,364,365,365,365,366,366,367,367,367,368,368,368,369,369,370,370,370,371,371,372,372,373,373,373,374,374,375,375,375,376,376,376,377,377,378,378,379,379,380,380,380,381,381,382,382,382,383,383,384,384,385,385,386,386,387,387,387,388,388,389,389,390,390,390,391,391,392,392,392,393,393,394,394,395,395,395,396,396,397,397,398,398,399,399,400,400,401,401,402,402,403,403,404,404,405,405,406,406,407,407,408,408,408,409,409,410,410,411,411,411,412,412,413,413,414,414,415,415,416,416,417,417,418,419,419,420,420,421,421,422,422,423,423,424,424,425,425,426,426,427,427,428,429,429,430,430,431,431,432,432,433,433,434,434,435,435,436,436,437,437,438,439,439,440,440,441,441,442,442,443,444,444,445,445,446,447,447,448,448,449,449,450,450,451,451,452,452,453,454,454,455,456,456,457,458,458,459,459,460,460,461,461,462,463,464,464,465,465,466,466,467,468,468,469,469,470,471,471,472,472,473,474,474,475,476,476,477,478,478,479,480,480,481,481,482,483,483,484,485,486,486,487,488,488,489,490,490,491,491,492,493,493,494,495,496,496,497,498,498,499,499,500,501,502,502,503,504,505,505,506,507,508,509,510,511,512,513,513,514,514,515,515,516,516,516,517,517,517,517,0,0,0,0,0,0,0,0,0,0,0,0,0,0,0,0,0,0,0,0,0,0,0,0,0,0,0,0,0,0,0,0,0,0,0,0,0,0,0,0,0,0,0,0,0,0,0,0,0,0,0,0,0,0,0,0,0,0,0,0,0,0,0,0,0,0,0,0,0,0,0,0,0,0,0,0,0,0,0,0,0,0,0,0,0,0,0,0,0,0,0,0,0,0,0,0,0,0,0,0,0,0,0,0,0,0,0,0,0,0,0
0,0,0,0,0,0,0,0,0,0,0,0,0,0,0,0,0,0,0,0,0,0,0,0,0,0,0,0,0,0,0,0,0,0,0,0,0,0,0,0,0,0,0,0,0,0,0,0,0,0,0,0,0,0,0,0,0,0,0,0,0,0,0,0,0,0,0,0,0,0,0,0,0,0,0,0,0,0,0,0,0,0,0,0,0,0,0,0,0,310,311,311,311,312,312,313,313,314,314,314,315,315,315,316,316,316,316,317,317,318,318,319,319,319,320,320,320,321,321,321,322,322,322,322,323,323,323,324,324,324,325,325,325,326,326,326,327,327,327,328,328,329,329,329,330,330,330,331,331,331,332,332,333,333,333,333,334,334,334,334,335,335,335,336,336,337,337,337,338,338,338,339,339,339,340,340,340,341,341,341,342,342,343,343,343,344,344,344,345,345,345,345,346,346,346,347,347,348,348,349,349,349,350,350,351,351,351,352,352,352,353,353,353,354,354,354,355,355,355,356,356,357,357,357,358,358,359,359,359,360,360,361,361,361,362,362,363,363,364,364,364,365,365,366,366,366,367,367,368,368,368,369,369,369,370,370,370,371,371,372,372,373,373,373,374,374,375,375,375,376,376,377,377,377,378,378,379,379,380,380,380,381,381,382,382,382,383,383,384,384,385,385,386,386,387,387,387,388,388,389,389,390,390,390,391,391,392,392,392,393,393,394,394,395,395,396,396,396,397,397,398,398,399,399,400,400,401,401,402,402,403,403,404,404,405,405,406,406,407,407,408,408,409,409,410,410,410,411,411,412,412,412,413,413,414,414,415,415,416,416,417,417,418,419,419,420,420,421,421,422,422,423,423,424,424,425,425,426,426,427,428,428,429,429,430,430,431,431,432,432,433,433,434,434,435,435,436,436,437,438,438,439,439,440,440,441,441,442,443,443,444,444,445,445,446,447,447,448,448,449,449,450,450,451,451,452,452,453,454,454,455,456,456,457,458,458,459,459,460,460,461,462,462,463,464,464,465,465,466,466,467,468,468,469,469,470,471,471,472,472,473,474,474,475,476,476,477,478,478,479,480,480,481,482,482,483,483,484,485,486,486,487,488,488,489,490,490,491,491,492,493,493,494,495,496,496,497,498,498,499,500,500,501,502,502,503,504,504,505,506,507,508,509,510,511,512,513,513,514,514,515,515,516,516,516,517,517,517,0,0,0,0,0,0,0,0,0,0,0,0,0,0,0,0,0,0,0,0,0,0,0,0,0,0,0,0,0,0,0,0,0,0,0,0,0,0,0,0,0,0,0,0,0,0,0,0,0,0,0,0,0,0,0,0,0,0,0,0,0,0,0,0,0,0,0,0,0,0,0,0,0,0,0,0,0,0,0,0,0,0,0,0,0,0,0,0,0,0,0,0,0,0,0,0,0,0,0,0,0,0,0,0,0,0,0,0,0,0,0,0
0,0,0,0,0,0,0,0,0,0,0,0,0,0,0,0,0,0,0,0,0,0,0,0,0,0,0,0,0,0,0,0,0,0,0,0,0,0,0,0,0,0,0,0,0,0,0,0,0,0,0,0,0,0,0,0,0,0,0,0,0,0,0,0,0,0,0,0,0,0,0,0,0,0,0,0,0,0,0,0,0,0,0,0,0,0,0,0,0,0,0,0,0,0,0,0,0,314,314,315,315,315,315,316,316,316,317,317,317,318,318,319,319,320,320,320,321,321,321,322,322,322,322,323,323,323,323,324,324,324,325,325,325,326,326,326,327,327,328,328,328,329,329,329,330,330,331,331,331,332,332,333,333,333,333,334,334,334,334,335,335,335,336,336,336,337,337,338,338,338,339,339,339,339,340,340,340,341,341,342,342,342,343,343,344,344,344,345,345,345,345,346,346,346,347,347,347,348,348,349,349,350,350,350,351,351,351,352,352,352,353,353,353,354,354,354,355,355,356,356,356,357,357,358,358,358,359,359,360,360,360,361,361,362,362,362,363,363,364,364,365,365,365,366,366,367,367,367,368,368,368,369,369,369,370,370,371,371,371,372,372,373,373,374,374,374,375,375,375,376,376,377,377,377,378,378,379,379,380,380,381,381,381,382,382,383,383,384,384,384,385,385,386,386,387,387,388,388,388,389,389,390,390,391,391,391,392,392,392,393,393,394,394,395,395,396,396,397,397,398,398,398,399,399,400,400,401,401,402,402,403,403,404,404,405,405,406,406,407,407,408,408,409,409,410,410,410,411,411,412,412,413,413,413,414,414,415,416,416,416,417,418,418,419,419,420,420,421,421,422,422,423,423,424,424,425,425,426,427,427,428,428,429,429,430,430,431,431,432,432,433,433,434,434,435,435,436,436,437,438,438,439,439,440,440,441,442,442,443,443,444,444,445,446,446,447,447,448,448,449,449,450,450,451,451,452,452,453,454,454,455,456,456,457,458,458,459,459,460,461,461,462,462,463,464,464,465,465,466,466,467,468,468,469,469,470,471,471,472,472,473,474,474,475,476,476,477,478,478,479,480,480,481,482,482,483,483,484,485,486,486,487,488,488,489,490,491,491,492,492,493,493,494,495,496,496,497,498,498,499,500,500,501,502,502,503,504,504,505,506,507,508,509,510,511,512,513,513,514,514,515,515,516,516,517,517,517,0,0,0,0,0,0,0,0,0,0,0,0,0,0,0,0,0,0,0,0,0,0,0,0,0,0,0,0,0,0,0,0,0,0,0,0,0,0,0,0,0,0,0,0,0,0,0,0,0,0,0,0,0,0,0,0,0,0,0,0,0,0,0,0,0,0,0,0,0,0,0,0,0,0,0,0,0,0,0,0,0,0,0,0,0,0,0,0,0,0,0,0,0,0,0,0,0,0,0,0,0,0,0,0,0,0,0,0,0,0,0,0,0
0,0,0,0,0,0,0,0,0,0,0,0,0,0,0,0,0,0,0,0,0,0,0,0,0,0,0,0,0,0,0,0,0,0,0,0,0,0,0,0,0,0,0,0,0,0,0,0,0,0,0,0,0,0,0,0,0,0,0,0,0,0,0,0,0,0,0,0,0,0,0,0,0,0,0,0,0,0,0,0,0,0,0,0,0,0,0,0,0,0,0,0,0,0,0,0,0,0,0,0,0,0,0,0,0,0,0,317,317,318,318,319,319,320,320,320,321,321,321,322,322,322,322,323,323,323,324,324,324,325,325,325,325,326,326,326,327,327,328,328,329,329,329,330,330,330,331,331,332,332,332,333,333,333,333,334,334,334,334,335,335,336,336,336,337,337,338,338,338,338,339,339,339,340,340,340,341,341,341,342,342,343,343,344,344,344,344,345,345,345,346,346,346,347,347,347,348,348,349,349,349,350,350,351,351,351,352,352,352,353,353,353,354,354,354,355,355,355,356,356,357,357,357,358,358,359,359,359,360,360,361,361,361,362,362,363,363,363,364,364,365,365,366,366,366,367,367,368,368,368,369,369,369,370,370,370,371,371,372,372,372,373,373,374,374,374,375,375,376,376,376,377,377,378,378,378,379,379,380,380,381,381,381,382,382,383,383,384,384,385,385,385,386,386,387,387,388,388,389,389,389,390,390,391,391,391,392,392,392,393,393,394,394,395,395,396,396,397,397,398,398,399,399,399,400,400,401,401,402,402,403,403,404,404,405,405,406,406,407,407,408,408,409,409,410,410,411,411,411,412,412,413,413,414,414,414,415,416,416,417,417,418,418,419,419,420,420,421,421,422,422,423,423,424,424,425,426,426,427,427,428,428,429,429,430,430,431,431,432,432,433,433,434,434,435,435,436,437,437,438,438,439,439,440,440,441,442,442,443,443,444,444,445,445,446,447,447,447,448,449,449,450,450,451,451,452,452,453,454,454,455,456,456,457,458,458,459,459,460,461,461,462,462,463,464,464,465,465,466,466,467,468,468,469,469,470,471,471,472,472,473,474,475,475,476,476,477,478,479,479,480,480,481,482,482,483,483,484,485,485,486,487,488,488,489,490,491,491,492,492,493,494,494,495,496,496,497,498,498,499,500,500,501,502,503,503,504,505,505,506,507,507,508,510,511,512,512,513,514,514,515,515,516,516,516,516,0,0,0,0,0,0,0,0,0,0,0,0,0,0,0,0,0,0,0,0,0,0,0,0,0,0,0,0,0,0,0,0,0,0,0,0,0,0,0,0,0,0,0,0,0,0,0,0,0,0,0,0,0,0,0,0,0,0,0,0,0,0,0,0,0,0,0,0,0,0,0,0,0,0,0,0,0,0,0,0,0,0,0,0,0,0,0,0,0,0,0,0,0,0,0,0,0,0,0,0,0,0,0,0,0,0,0,0,0,0,0,0,0,0
0,0,0,0,0,0,0,0,0,0,0,0,0,0,0,0,0,0,0,0,0,0,0,0,0,0,0,0,0,0,0,0,0,0,0,0,0,0,0,0,0,0,0,0,0,0,0,0,0,0,0,0,0,0,0,0,0,0,0,0,0,0,0,0,0,0,0,0,0,0,0,0,0,0,0,0,0,0,0,0,0,0,0,0,0,0,0,0,0,0,0,0,0,0,0,0,0,0,0,0,0,0,0,0,0,0,0,0,0,0,0,0,0,320,320,320,321,321,321,322,322,322,323,323,323,323,324,324,324,325,325,325,326,326,326,327,327,328,328,328,329,329,329,330,330,330,331,331,332,332,332,333,333,333,334,334,334,334,335,335,335,336,336,337,337,337,338,338,338,339,339,339,340,340,340,341,341,341,342,342,342,343,343,344,344,344,345,345,345,346,346,346,346,347,347,348,348,348,349,349,350,350,350,351,351,351,352,352,352,353,353,353,354,354,354,355,355,356,356,356,357,357,358,358,358,359,359,360,360,360,361,361,362,362,362,363,363,364,364,364,365,365,366,366,367,367,367,368,368,368,369,369,369,370,370,370,371,371,372,372,373,373,373,374,374,374,375,375,376,376,376,377,377,378,378,379,379,379,380,380,381,381,381,382,382,383,383,384,384,385,385,386,386,386,387,387,388,388,389,389,390,390,390,391,391,391,392,392,393,393,393,394,394,395,396,396,397,397,397,398,398,399,399,400,400,401,401,401,402,402,403,403,404,404,405,405,406,406,407,407,408,408,409,409,410,410,411,411,411,412,412,413,413,414,414,415,415,416,416,417,417,418,418,419,419,420,420,421,421,422,422,423,423,424,425,425,426,426,427,427,428,428,429,429,430,430,431,431,432,432,433,433,434,434,435,435,436,437,437,438,438,439,439,440,441,441,442,442,443,443,444,444,445,445,446,446,447,447,448,449,449,450,450,451,451,452,453,453,454,454,455,456,456,457,458,458,459,459,460,461,461,462,462,463,464,464,465,465,466,466,467,468,468,469,469,470,471,471,472,473,473,474,475,475,476,476,477,478,479,479,480,481,481,482,482,483,483,484,484,485,486,487,487,488,489,490,491,491,492,493,493,494,494,495,496,496,497,498,498,499,500,500,501,502,503,503,504,505,505,506,507,507,508,509,510,511,512,513,514,514,515,515,516,516,516,0,0,0,0,0,0,0,0,0,0,0,0,0,0,0,0,0,0,0,0,0,0,0,0,0,0,0,0,0,0,0,0,0,0,0,0,0,0,0,0,0,0,0,0,0,0,0,0,0,0,0,0,0,0,0,0,0,0,0,0,0,0,0,0,0,0,0,0,0,0,0,0,0,0,0,0,0,0,0,0,0,0,0,0,0,0,0,0,0,0,0,0,0,0,0,0,0,0,0,0,0,0,0,0,0,0,0,0,0,0,0,0,0,0,0
0,0,0,0,0,0,0,0,0,0,0,0,0,0,0,0,0,0,0,0,0,0,0,0,0,0,0,0,0,0,0,0,0,0,0,0,0,0,0,0,0,0,0,0,0,0,0,0,0,0,0,0,0,0,0,0,0,0,0,0,0,0,0,0,0,0,0,0,0,0,0,0,0,0,0,0,0,0,0,0,0,0,0,0,0,0,0,0,0,0,0,0,0,0,0,0,0,0,0,0,0,0,0,0,0,0,0,0,0,0,0,0,0,0,0,0,0,0,0,0,0,0,0,323,323,323,324,324,324,325,325,325,326,326,326,327,327,328,328,329,329,329,329,330,330,330,331,331,332,332,333,333,333,333,334,334,334,334,335,335,336,336,336,337,337,338,338,338,338,339,339,339,340,340,340,341,341,341,342,342,343,343,344,344,344,345,345,345,345,346,346,346,347,347,347,348,348,349,349,350,350,350,351,351,351,352,352,352,353,353,353,354,354,354,355,355,355,356,356,357,357,357,358,358,359,359,359,360,360,361,361,361,362,362,363,363,363,364,364,365,365,366,366,366,367,367,368,368,368,369,369,369,370,370,370,371,371,372,372,372,373,373,374,374,374,375,375,375,376,376,377,377,377,378,378,379,379,380,380,380,381,381,382,382,383,383,383,384,384,385,385,386,386,387,387,387,388,388,389,389,390,390,390,391,391,392,392,392,393,393,394,394,395,395,396,396,397,397,398,398,398,399,399,400,400,401,401,402,402,403,403,404,404,405,405,406,406,406,407,407,408,408,409,409,410,410,411,411,412,412,412,413,413,414,414,415,415,416,416,417,417,418,418,419,419,420,421,421,421,422,422,423,423,424,425,425,426,426,427,427,428,428,429,429,430,430,431,431,432,432,433,433,434,434,435,435,436,437,437,438,438,439,440,440,441,441,442,442,443,443,444,444,445,445,446,446,447,447,448,449,449,450,450,451,451,452,453,453,454,454,455,456,456,457,457,458,459,459,460,461,461,462,462,463,463,464,465,465,466,466,467,468,468,469,469,470,471,471,472,473,473,474,475,475,476,477,477,478,479,479,480,481,481,482,482,483,483,484,484,485,486,486,487,488,489,490,491,491,492,493,493,494,495,495,496,496,497,498,498,499,500,501,501,502,503,503,504,505,505,506,507,507,508,509,510,511,512,513,514,514,515,515,515,516,516,0,0,0,0,0,0,0,0,0,0,0,0,0,0,0,0,0,0,0,0,0,0,0,0,0,0,0,0,0,0,0,0,0,0,0,0,0,0,0,0,0,0,0,0,0,0,0,0,0,0,0,0,0,0,0,0,0,0,0,0,0,0,0,0,0,0,0,0,0,0,0,0,0,0,0,0,0,0,0,0,0,0,0,0,0,0,0,0,0,0,0,0,0,0,0,0,0,0,0,0,0,0,0,0,0,0,0,0,0,0,0,0,0,0,0
0,0,0,0,0,0,0,0,0,0,0,0,0,0,0,0,0,0,0,0,0,0,0,0,0,0,0,0,0,0,0,0,0,0,0,0,0,0,0,0,0,0,0,0,0,0,0,0,0,0,0,0,0,0,0,0,0,0,0,0,0,0,0,0,0,0,0,0,0,0,0,0,0,0,0,0,0,0,0,0,0,0,0,0,0,0,0,0,0,0,0,0,0,0,0,0,0,0,0,0,0,0,0,0,0,0,0,0,0,0,0,0,0,0,0,0,0,0,0,0,0,0,0,0,0,0,0,0,0,0,0,0,326,326,326,327,327,328,328,329,329,329,330,330,330,331,331,332,332,332,333,333,333,334,334,334,334,335,335,335,336,336,337,337,337,338,338,338,339,339,339,340,340,340,341,341,341,342,342,342,343,343,344,344,344,345,345,345,346,346,346,346,347,347,348,348,349,349,349,350,350,350,351,351,352,352,352,353,353,353,354,354,354,355,355,355,356,356,356,357,357,358,358,358,359,359,360,360,360,361,361,362,362,362,363,363,364,364,365,365,365,366,366,367,367,367,368,368,368,369,369,369,370,370,371,371,371,372,372,373,373,373,374,374,374,375,375,376,376,376,377,377,378,378,378,379,379,380,380,381,381,381,382,382,383,383,384,384,385,385,385,386,386,387,387,388,388,388,389,389,390,390,391,391,391,392,392,392,393,393,394,394,395,395,396,396,397,397,398,398,399,399,399,400,400,401,401,402,402,403,403,404,404,405,405,406,406,407,407,407,408,408,409,409,410,410,411,411,412,412,412,413,413,414,414,415,415,416,416,417,418,418,419,419,420,420,421,421,422,422,422,423,424,424,425,425,426,426,427,427,428,428,429,429,430,430,431,431,432,432,433,433,434,434,435,436,436,437,437,438,439,439,440,440,441,441,442,442,443,443,444,444,445,445,446,446,447,447,448,448,449,450,450,451,452,452,453,453,454,454,455,456,456,457,457,458,459,459,460,461,461,462,462,463,463,464,465,465,466,466,467,467,468,469,469,470,471,471,472,473,473,474,475,475,476,477,477,478,479,480,480,481,481,482,482,483,483,484,484,485,486,486,487,488,489,490,491,492,492,493,494,494,495,495,496,497,497,498,498,499,500,501,501,502,503,504,504,505,505,506,507,507,508,509,510,511,512,513,514,514,515,515,515,516,516,0,0,0,0,0,0,0,0,0,0,0,0,0,0,0,0,0,0,0,0,0,0,0,0,0,0,0,0,0,0,0,0,0,0,0,0,0,0,0,0,0,0,0,0,0,0,0,0,0,0,0,0,0,0,0,0,0,0,0,0,0,0,0,0,0,0,0,0,0,0,0,0,0,0,0,0,0,0,0,0,0,0,0,0,0,0,0,0,0,0,0,0,0,0,0,0,0,0,0,0,0,0,0,0,0,0,0,0,0,0,0,0,0,0,0
0,0,0,0,0,0,0,0,0,0,0,0,0,0,0,0,0,0,0,0,0,0,0,0,0,0,0,0,0,0,0,0,0,0,0,0,0,0,0,0,0,0,0,0,0,0,0,0,0,0,0,0,0,0,0,0,0,0,0,0,0,0,0,0,0,0,0,0,0,0,0,0,0,0,0,0,0,0,0,0,0,0,0,0,0,0,0,0,0,0,0,0,0,0,0,0,0,0,0,0,0,0,0,0,0,0,0,0,0,0,0,0,0,0,0,0,0,0,0,0,0,0,0,0,0,0,0,0,0,0,0,0,0,0,0,0,0,0,0,0,0,329,330,330,330,331,331,332,332,333,333,333,333,334,334,334,334,335,335,336,336,337,337,337,338,338,338,338,339,339,339,340,340,341,341,341,342,342,342,343,343,343,344,344,344,345,345,345,346,346,346,347,347,348,348,348,349,349,350,350,350,351,351,351,352,352,353,353,353,353,354,354,354,355,355,355,356,356,357,357,358,358,358,359,359,359,360,360,361,361,361,362,362,363,363,363,364,364,365,365,366,366,366,367,367,368,368,368,369,369,369,370,370,370,371,371,372,372,372,373,373,374,374,374,375,375,375,376,376,377,377,377,378,378,379,379,379,380,380,381,381,382,382,382,383,383,384,384,385,385,386,386,386,387,387,388,388,389,389,390,390,390,391,391,391,392,392,393,393,394,394,395,395,396,396,397,397,398,398,398,399,399,399,400,400,401,401,402,402,403,403,404,404,405,405,406,406,407,407,408,408,409,409,409,410,410,411,411,412,412,413,413,413,414,414,415,415,416,417,417,418,418,419,419,420,420,421,421,422,422,423,423,424,424,425,425,426,426,427,427,428,429,429,429,430,430,431,432,432,432,433,433,434,435,435,436,436,437,437,438,439,439,440,440,441,441,442,442,443,443,444,444,445,446,446,446,447,447,448,448,449,450,450,451,452,452,453,453,454,454,455,456,456,457,457,458,459,459,460,460,461,462,462,463,463,464,465,465,466,466,467,468,468,469,469,470,471,471,472,473,473,474,475,476,476,477,478,478,479,480,480,481,481,482,482,483,483,484,484,485,486,487,488,489,490,490,491,492,493,493,494,494,495,495,496,497,497,498,499,499,500,501,501,502,503,504,504,505,505,506,507,507,508,509,510,511,512,513,514,514,514,515,515,516,516,516,0,0,0,0,0,0,0,0,0,514,0,0,0,0,0,0,0,0,0,0,0,0,0,0,0,0,0,0,0,0,0,0,0,0,0,0,0,0,0,0,0,0,0,0,0,0,0,0,0,0,0,0,0,0,0,0,0,0,0,0,0,0,0,0,0,0,0,0,0,0,0,0,0,0,0,0,0,0,0,0,0,0,0,0,0,0,0,0,0,0,0,0,0,0,0,0,0,0,0,0,0,0,0,0,0,0,0,0,0,0,0,0,0,0
0,0,0,0,0,0,0,0,0,0,0,0,0,0,0,0,0,0,0,0,0,0,0,0,0,0,0,0,0,0,0,0,0,0,0,0,0,0,0,0,0,0,0,0,0,0,0,0,0,0,0,0,0,0,0,0,0,0,0,0,0,0,0,0,0,0,0,0,0,0,0,0,0,0,0,0,0,0,0,0,0,0,0,0,0,0,0,0,0,0,0,0,0,0,0,0,0,0,0,0,0,0,0,0,0,0,0,0,0,0,0,0,0,0,0,0,0,0,0,0,0,0,0,0,0,0,0,0,0,0,0,0,0,0,0,0,0,0,0,0,0,0,0,0,0,0,0,0,0,333,333,333,334,334,334,334,334,335,335,336,336,337,337,338,338,338,338,339,339,339,340,340,340,341,341,341,342,342,342,343,343,344,344,344,345,345,345,345,346,346,346,347,347,348,348,349,349,349,350,350,350,351,351,352,352,352,353,353,353,354,354,354,355,355,355,356,356,356,357,357,358,358,359,359,359,360,360,360,361,361,362,362,362,363,363,364,364,365,365,365,366,366,367,367,367,368,368,368,369,369,370,370,370,371,371,372,372,372,373,373,373,374,374,375,375,375,376,376,376,377,377,378,378,378,379,379,380,380,380,381,381,382,382,383,383,384,384,385,385,385,386,386,387,387,388,388,388,389,389,390,390,391,391,391,392,392,393,393,393,394,394,395,395,396,396,397,397,398,398,398,399,399,400,400,400,401,401,402,403,403,403,404,405,405,405,406,406,407,407,408,408,409,409,410,410,411,411,411,412,412,413,413,414,414,415,415,416,416,417,417,418,418,419,419,420,420,421,421,422,422,423,423,424,424,425,426,426,427,427,428,428,429,429,430,430,431,431,432,432,433,433,434,434,435,435,436,436,437,438,438,439,439,440,440,441,441,442,443,443,444,444,445,445,446,446,447,447,447,448,448,449,450,450,451,452,452,453,453,454,455,455,456,456,457,457,458,459,459,460,460,461,462,462,463,463,464,464,465,466,466,467,468,468,469,469,470,471,471,472,473,474,474,475,476,476,477,478,479,479,480,481,481,482,482,483,483,483,484,484,485,486,487,488,489,490,491,491,492,493,493,494,494,495,496,496,497,497,498,499,499,500,501,502,502,503,504,504,505,506,506,507,508,508,509,510,511,512,513,513,514,514,515,515,515,516,516,517,517,0,0,0,0,0,0,0,0,0,0,0,0,0,0,0,0,0,0,0,0,0,0,0,0,0,0,0,0,0,0,0,0,0,0,0,0,0,0,0,0,0,0,0,0,0,0,0,0,0,0,0,0,0,0,0,0,0,0,0,0,0,0,0,0,0,0,0,0,0,0,0,0,0,0,0,0,0,0,0,0,0,0,0,0,0,0,0,0,0,0,0,0,0,0,0,0,0,0,0,0,0,0,0,0,0,0,0,0,0,0,0,0
0,0,0,0,0,0,0,0,0,0,0,0,0,0,0,0,0,0,0,0,0,0,0,0,0,0,0,0,0,0,0,0,0,0,0,0,0,0,0,0,0,0,0,0,0,0,0,0,0,0,0,0,0,0,0,0,0,0,0,0,0,0,0,0,0,0,0,0,0,0,0,0,0,0,0,0,0,0,0,0,0,0,0,0,0,0,0,0,0,0,0,0,0,0,0,0,0,0,0,0,0,0,0,0,0,0,0,0,0,0,0,0,0,0,0,0,0,0,0,0,0,0,0,0,0,0,0,0,0,0,0,0,0,0,0,0,0,0,0,0,0,0,0,0,0,0,0,0,0,0,0,0,0,0,0,0,0,0,0,0,0,0,0,338,338,338,338,339,339,339,340,340,340,341,341,342,342,342,343,343,343,344,344,344,345,345,345,346,346,346,347,347,347,348,348,349,349,350,350,350,351,351,351,352,352,353,353,353,354,354,354,354,355,355,355,356,356,357,357,358,358,358,359,359,360,360,360,361,361,361,362,362,363,363,364,364,364,365,365,366,366,366,367,367,368,368,368,369,369,369,370,370,371,371,371,372,372,372,373,373,374,374,374,375,375,375,376,376,377,377,377,378,378,379,379,379,380,380,381,381,381,382,382,383,383,384,384,385,385,386,386,387,387,387,388,388,389,389,389,390,390,391,391,391,392,392,393,393,394,394,395,395,396,396,397,397,397,398,398,399,399,399,400,400,401,401,402,402,403,403,404,404,405,405,406,406,407,407,407,408,408,409,409,410,410,411,411,412,412,412,413,413,414,414,415,415,416,416,417,417,418,418,419,420,420,420,421,421,422,422,423,423,424,424,425,426,426,427,427,428,428,429,429,430,430,431,431,432,432,433,433,434,434,435,435,436,437,437,438,438,439,439,440,440,441,442,442,443,443,444,444,445,445,446,446,447,447,447,448,449,449,450,450,451,452,452,453,454,454,455,455,456,456,457,457,458,459,459,460,460,461,462,462,463,463,464,464,465,466,466,467,468,468,469,469,470,471,472,472,473,474,474,475,476,476,477,478,479,479,480,481,481,482,482,483,483,483,484,485,485,486,487,488,489,490,491,492,492,493,493,494,494,495,496,496,497,497,498,499,499,500,501,502,503,503,504,505,505,506,506,507,508,508,509,510,511,512,513,513,514,514,515,515,515,516,516,517,0,0,0,0,0,0,0,0,0,0,0,0,0,0,0,0,0,0,0,0,0,0,0,0,0,0,0,0,0,0,0,0,0,0,0,0,0,0,0,0,0,0,0,0,0,0,0,0,0,0,0,0,0,0,0,0,0,0,0,0,0,0,0,0,0,0,0,0,0,0,0,0,0,0,0,0,0,0,0,0,0,0,0,0,0,0,0,0,0,0,0,0,0,0,0,0,0,0,0,0,0,0,0,0,0,0,0,0,0,0,0,0,0
0,0,0,0,0,0,0,0,0,0,0,0,0,0,0,0,0,0,0,0,0,0,0,0,0,0,0,0,0,0,0,0,0,0,0,0,0,0,0,0,0,0,0,0,0,0,0,0,0,0,0,0,0,0,0,0,0,0,0,0,0,0,0,0,0,0,0,0,0,0,0,0,0,0,0,0,0,0,0,0,0,0,0,0,0,0,0,0,0,0,0,0,0,0,0,0,0,0,0,0,0,0,0,0,0,0,0,0,0,0,0,0,0,0,0,0,0,0,0,0,0,0,0,0,0,0,0,0,0,0,0,0,0,0,0,0,0,0,0,0,0,0,0,0,0,0,0,0,0,0,0,0,0,0,0,0,0,0,0,0,0,0,0,0,0,0,0,0,0,0,0,0,0,0,341,342,342,342,343,343,343,344,344,344,345,345,345,346,346,346,347,347,348,348,349,349,349,350,350,350,351,351,351,352,352,353,353,353,354,354,354,355,355,355,356,356,357,357,357,358,358,359,359,359,360,360,360,361,361,362,362,362,363,363,364,364,365,365,366,366,366,367,367,367,368,368,368,369,369,369,370,370,371,371,372,372,372,373,373,373,374,374,375,375,375,376,376,377,377,377,378,378,379,379,379,380,380,380,381,381,382,382,383,383,384,384,385,385,385,386,386,387,387,388,388,388,389,389,390,390,390,391,391,392,392,393,393,394,394,394,395,395,396,396,397,397,398,398,398,399,399,400,400,400,401,401,402,402,403,403,404,404,405,405,406,406,407,407,408,408,408,409,409,410,410,411,411,412,412,413,413,414,414,414,415,415,416,416,417,417,418,419,419,420,420,421,421,422,422,423,423,424,424,425,425,426,426,427,427,428,428,429,429,430,430,431,431,432,432,433,433,434,434,435,436,436,437,437,438,438,439,439,440,441,441,442,442,443,443,444,444,445,445,446,446,447,447,448,448,449,449,450,451,451,452,453,453,454,454,455,455,456,456,457,458,458,459,459,460,460,461,462,462,463,463,464,465,465,466,466,467,468,468,469,469,470,471,472,472,473,474,474,475,476,477,477,478,479,480,480,481,481,482,482,483,483,484,484,485,486,487,488,489,490,490,491,492,492,493,493,494,494,495,496,496,497,498,498,499,500,500,501,502,503,503,504,505,505,506,507,507,508,509,509,510,511,512,512,513,514,514,515,515,515,516,516,0,0,0,0,0,0,0,0,0,0,0,0,0,0,0,0,0,0,0,0,0,0,0,0,0,0,0,0,0,0,0,0,0,0,0,0,0,0,0,0,0,0,0,0,0,0,0,0,0,0,0,0,0,0,0,0,0,0,0,0,0,0,0,0,0,0,0,0,0,0,0,0,0,0,0,0,0,0,0,0,0,0,0,0,0,0,0,0,0,0,0,0,0,0,0,0,0,0,0,0,0,0,0,0,0,0,0,0,0,0,0,0,0,0
0,0,0,0,0,0,0,0,0,0,0,0,0,0,0,0,0,0,0,0,0,0,0,0,0,0,0,0,0,0,0,0,0,0,0,0,0,0,0,0,0,0,0,0,0,0,0,0,0,0,0,0,0,0,0,0,0,0,0,0,0,0,0,0,0,0,0,0,0,0,0,0,0,0,0,0,0,0,0,0,0,0,0,0,0,0,0,0,0,0,0,0,0,0,0,0,0,0,0,0,0,0,0,0,0,0,0,0,0,0,0,0,0,0,0,0,0,0,0,0,0,0,0,0,0,0,0,0,0,0,0,0,0,0,0,0,0,0,0,0,0,0,0,0,0,0,0,0,0,0,0,0,0,0,0,0,0,0,0,0,0,0,0,0,0,0,0,0,0,0,0,0,0,0,0,0,0,0,0,0,0,0,0,0,0,0,0,346,346,346,347,347,348,348,349,349,349,350,350,350,351,351,352,352,353,353,353,354,354,354,354,355,355,355,356,356,357,357,358,358,358,359,359,359,360,360,361,361,361,362,362,363,363,364,364,364,365,365,366,366,366,367,367,368,368,368,369,369,369,370,370,371,371,371,372,372,372,373,373,374,374,374,375,375,376,376,376,377,377,378,378,378,379,379,379,380,380,381,381,381,382,382,383,383,384,384,385,385,386,386,387,387,387,388,388,389,389,389,390,390,391,391,392,392,392,393,393,394,394,395,395,396,396,397,397,397,398,398,399,399,399,400,400,401,401,401,402,402,403,404,404,405,405,406,406,407,407,407,408,408,409,409,410,410,411,411,412,412,412,413,413,414,414,415,415,415,416,417,417,418,418,419,419,420,420,421,421,422,422,423,423,424,424,425,425,426,426,427,428,428,429,429,430,430,431,431,431,432,432,433,433,434,434,435,436,436,437,437,438,438,439,439,440,441,441,442,443,443,444,444,445,445,446,446,446,447,447,448,448,449,449,450,451,451,452,453,453,454,454,455,456,456,457,457,458,458,459,459,460,461,461,462,462,463,463,464,465,465,466,466,467,468,468,469,470,470,471,472,472,473,474,475,475,476,477,478,478,479,480,480,481,481,482,483,483,483,484,485,485,486,487,488,489,490,491,491,492,492,493,493,494,494,495,496,496,497,498,498,499,500,500,501,502,503,503,504,505,505,506,507,507,508,509,509,510,511,512,512,513,513,514,514,515,515,516,516,0,0,0,0,0,0,0,0,0,0,0,0,0,0,0,0,0,0,0,0,0,0,0,0,0,0,0,0,0,0,0,0,0,0,0,0,0,0,0,0,0,0,0,0,0,0,0,0,0,0,0,0,0,0,0,0,0,0,0,0,0,0,0,0,0,0,0,0,0,0,0,0,0,0,0,0,0,0,0,0,0,0,0,0,0,0,0,0,0,0,0,0,0,0,0,0,0,0,0,0,0,0,0,0,0,0,0,0,0,0,0,0,0,0
0,0,0,0,0,0,0,0,0,0,0,0,0,0,0,0,0,0,0,0,0,0,0,0,0,0,0,0,0,0,0,0,0,0,0,0,0,0,0,0,0,0,0,0,0,0,0,0,0,0,0,0,0,0,0,0,0,0,0,0,0,0,0,0,0,0,0,0,0,0,0,0,0,0,0,0,0,0,0,0,0,0,0,0,0,0,0,0,0,0,0,0,0,0,0,0,0,0,0,0,0,0,0,0,0,0,0,0,0,0,0,0,0,0,0,0,0,0,0,0,0,0,0,0,0,0,0,0,0,0,0,0,0,0,0,0,0,0,0,0,0,0,0,0,0,0,0,0,0,0,0,0,0,0,0,0,0,0,0,0,0,0,0,0,0,0,0,0,0,0,0,0,0,0,0,0,0,0,0,0,0,0,0,0,0,0,0,0,0,0,0,0,0,348,349,349,350,350,350,351,351,351,352,352,353,353,353,354,354,354,355,355,355,356,356,356,357,357,358,358,359,359,359,360,360,361,361,361,362,362,362,363,363,364,364,365,365,366,366,366,367,367,367,368,368,368,369,369,369,370,370,371,371,372,372,372,373,373,373,374,374,375,375,375,376,376,377,377,377,378,378,379,379,379,380,380,381,381,381,382,382,383,383,383,384,384,385,385,386,386,387,387,388,388,388,389,389,390,390,390,391,391,392,392,393,393,394,394,395,395,396,396,396,397,397,398,398,398,399,399,400,400,400,401,401,402,402,403,403,404,404,405,405,406,406,407,407,408,408,409,409,409,410,410,411,411,412,412,413,413,414,414,414,415,415,416,416,417,417,418,418,419,419,420,421,421,421,422,422,423,423,424,424,425,425,426,427,427,428,428,429,429,430,430,431,431,432,432,433,433,433,434,435,435,436,436,437,437,438,438,439,440,440,441,441,442,443,443,444,444,445,445,446,446,447,447,447,448,448,449,449,450,451,451,452,453,453,454,455,455,456,456,457,457,458,458,459,460,460,461,461,462,462,463,463,464,465,465,466,467,467,468,468,469,470,470,471,472,472,473,474,475,475,476,477,478,478,479,480,480,481,482,482,483,483,484,484,485,486,486,487,488,489,490,491,492,492,493,493,493,494,494,495,496,496,497,498,498,499,500,500,501,502,503,504,504,505,505,506,507,507,508,509,510,510,511,511,512,513,513,514,515,515,515,516,516,0,0,0,0,0,0,0,0,0,0,0,0,0,0,0,0,0,0,0,0,0,0,0,0,0,0,0,0,0,0,0,0,0,0,0,0,0,0,0,0,0,0,0,0,0,0,0,0,0,0,0,0,0,0,0,0,0,0,0,0,0,0,0,0,0,0,0,0,0,0,0,0,0,0,0,0,0,0,0,0,0,0,0,0,0,0,0,0,0,0,0,0,0,0,0,0,0,0,0,0,0,0,0,0,0,0,0,0,0,0,0,0,0,0
0,0,0,0,0,0,0,0,0,0,0,0,0,0,0,0,0,0,0,0,0,0,0,0,0,0,0,0,0,0,0,0,0,0,0,0,0,0,0,0,0,0,0,0,0,0,0,0,0,0,0,0,0,0,0,0,0,0,0,0,0,0,0,0,0,0,0,0,0,0,0,0,0,0,0,0,0,0,0,0,0,0,0,0,0,0,0,0,0,0,0,0,0,0,0,0,0,0,0,0,0,0,0,0,0,0,0,0,0,0,0,0,0,0,0,0,0,0,0,0,0,0,0,0,0,0,0,0,0,0,0,0,0,0,0,0,0,0,0,0,0,0,0,0,0,0,0,0,0,0,0,0,0,0,0,0,0,0,0,0,0,0,0,0,0,0,0,0,0,0,0,0,0,0,0,0,0,0,0,0,0,0,0,0,0,0,0,0,0,0,0,0,0,0,0,0,0,0,0,0,0,0,0,0,0,0,0,0,354,354,355,355,355,356,356,357,357,358,358,358,359,359,359,360,360,361,361,362,362,362,363,363,364,364,364,365,365,366,366,366,367,367,367,368,368,368,369,369,370,370,371,371,371,372,372,372,373,373,374,374,374,375,375,376,376,376,377,377,378,378,378,379,379,380,380,380,381,381,381,382,382,383,383,384,384,385,385,386,386,387,387,387,388,388,389,389,389,390,390,391,391,392,392,393,393,394,394,395,395,395,396,396,397,397,397,398,398,399,399,399,400,400,401,401,402,402,402,403,403,404,404,405,406,406,406,407,407,408,408,409,409,410,410,411,411,411,412,412,413,413,414,414,415,415,415,416,416,417,417,418,419,419,420,420,421,421,422,422,422,423,423,424,425,425,426,426,427,427,428,428,429,430,430,430,431,431,432,432,433,433,434,434,435,435,436,436,437,437,438,439,439,440,440,441,442,442,443,443,444,444,445,445,446,446,447,447,448,448,448,449,450,450,451,452,452,453,454,454,455,455,456,457,457,457,458,459,459,460,460,461,461,462,462,463,464,464,465,465,466,467,467,468,469,469,470,471,471,472,473,473,474,475,476,476,477,478,478,479,480,481,481,482,482,483,484,484,485,485,486,487,488,489,490,490,491,492,492,493,493,494,494,494,495,496,496,497,498,498,499,500,500,501,502,503,504,504,505,505,506,507,507,508,509,510,510,511,511,512,513,513,514,0,0,0,0,0,0,0,0,0,0,0,0,0,0,0,0,0,0,0,0,0,0,0,0,0,0,0,0,0,0,0,0,0,0,0,0,0,0,0,0,0,0,0,0,0,0,0,0,0,0,0,0,0,0,0,0,0,0,0,0,0,0,0,0,0,0,0,0,0,0,0,0,0,0,0,0,0,0,0,0,0,0,0,0,0,0,0,0,0,0,0,0,0,0,0,0,0,0,0,0,0,0,0,0,0,0,0,0,0,0,0,0,0,0,0,0,0,0,0
0,0,0,0,0,0,0,0,0,0,0,0,0,0,0,0,0,0,0,0,0,0,0,0,0,0,0,0,0,0,0,0,0,0,0,0,0,0,0,0,0,0,0,0,0,0,0,0,0,0,0,0,0,0,0,0,0,0,0,0,0,0,0,0,0,0,0,0,0,0,0,0,0,0,0,0,0,0,0,0,0,0,0,0,0,0,0,0,0,0,0,0,0,0,0,0,0,0,0,0,0,0,0,0,0,0,0,0,0,0,0,0,0,0,0,0,0,0,0,0,0,0,0,0,0,0,0,0,0,0,0,0,0,0,0,0,0,0,0,0,0,0,0,0,0,0,0,0,0,0,0,0,0,0,0,0,0,0,0,0,0,0,0,0,0,0,0,0,0,0,0,0,0,0,0,0,0,0,0,0,0,0,0,0,0,0,0,0,0,0,0,0,0,0,0,0,0,0,0,0,0,0,0,0,0,0,0,0,0,0,0,0,0,0,0,0,0,0,0,0,0,359,360,360,360,361,361,362,362,362,363,363,364,364,365,365,365,366,366,367,367,367,367,368,368,369,369,370,370,370,371,371,372,372,372,373,373,373,374,374,374,375,375,376,376,377,377,377,378,378,379,379,379,380,380,381,381,381,382,382,382,383,383,384,385,385,386,386,386,387,387,388,388,388,389,389,390,390,391,391,391,392,392,393,393,394,394,395,395,396,396,396,397,397,398,398,398,399,399,400,400,401,401,401,402,402,403,403,404,404,405,405,406,406,407,407,408,408,409,409,409,410,410,411,411,412,412,413,413,414,414,414,415,415,416,416,417,417,418,418,419,419,420,420,421,421,422,422,423,423,424,424,425,425,426,426,427,428,428,429,429,430,430,431,431,432,432,432,433,433,434,434,435,435,436,436,437,438,438,439,439,440,441,441,442,442,443,444,444,445,445,446,446,446,447,447,448,448,449,449,450,450,451,452,453,453,454,454,455,456,456,457,457,458,458,459,459,460,461,461,462,462,463,463,464,464,465,466,466,467,468,468,469,469,470,471,472,472,473,474,474,475,476,477,477,478,479,479,480,481,481,482,483,483,484,484,485,486,486,487,488,489,490,490,491,492,492,493,493,494,494,495,495,496,497,497,498,499,499,500,501,501,502,503,504,504,505,505,506,507,507,508,509,510,510,511,512,512,513,514,514,0,0,0,0,0,0,0,0,0,0,0,0,0,0,0,0,0,0,0,0,0,0,0,0,0,0,0,0,0,0,0,0,0,0,0,0,0,0,0,0,0,0,0,0,0,0,0,0,0,0,0,0,0,0,0,0,0,0,0,0,0,0,0,0,0,0,0,0,0,0,0,0,0,0,0,0,0,0,0,0,0,0,0,0,0,0,0,0,0,0,0,0,0,0,0,0,0,0,0,0,0,0,0,0,0,0,0,0,0,0,0,0,0,0,0,0,0,0,0
0,0,0,0,0,0,0,0,0,0,0,0,0,0,0,0,0,0,0,0,0,0,0,0,0,0,0,0,0,0,0,0,0,0,0,0,0,0,0,0,0,0,0,0,0,0,0,0,0,0,0,0,0,0,0,0,0,0,0,0,0,0,0,0,0,0,0,0,0,0,0,0,0,0,0,0,0,0,0,0,0,0,0,0,0,0,0,0,0,0,0,0,0,0,0,0,0,0,0,0,0,0,0,0,0,0,0,0,0,0,0,0,0,0,0,0,0,0,0,0,0,0,0,0,0,0,0,0,0,0,0,0,0,0,0,0,0,0,0,0,0,0,0,0,0,0,0,0,0,0,0,0,0,0,0,0,0,0,0,0,0,0,0,0,0,0,0,0,0,0,0,0,0,0,0,0,0,0,0,0,0,0,0,0,0,0,0,0,0,0,0,0,0,0,0,0,0,0,0,0,0,0,0,0,0,0,0,0,0,0,0,0,0,0,0,0,0,0,0,0,0,0,0,0,0,0,0,362,362,363,363,363,364,364,365,365,366,366,366,367,367,367,368,368,368,369,369,370,370,371,371,371,372,372,372,373,373,373,374,374,374,375,375,376,376,377,377,378,378,378,379,379,380,380,380,381,381,382,382,382,383,383,384,384,385,385,386,386,387,387,388,388,388,389,389,390,390,390,391,391,392,392,393,393,394,394,395,395,395,396,396,397,397,397,398,398,399,399,400,400,401,401,401,402,402,403,403,403,404,404,405,405,406,406,407,407,408,408,409,409,410,410,411,411,411,412,412,413,413,414,414,415,415,415,416,416,417,417,418,418,419,420,420,421,421,422,422,423,423,423,424,425,425,426,426,427,427,428,428,429,429,430,430,431,431,432,432,433,433,433,434,434,435,435,436,437,437,438,438,439,440,440,441,441,442,443,443,444,444,445,445,446,446,447,447,448,448,448,449,449,450,451,451,452,453,453,454,455,455,456,456,457,457,458,459,459,460,460,461,461,462,462,463,463,464,464,465,466,466,467,468,468,469,470,470,471,472,472,473,474,475,475,476,477,477,478,479,480,480,481,482,482,483,483,484,485,485,486,487,487,488,489,490,490,491,492,492,493,493,494,494,495,495,496,497,497,498,499,499,500,501,502,502,503,504,504,505,505,506,507,507,508,509,509,510,511,512,512,513,514,514,515,0,0,0,0,0,0,0,0,0,0,0,0,0,0,0,0,0,0,0,0,0,0,0,0,0,0,0,0,0,0,0,0,0,0,0,0,0,0,0,0,0,0,0,0,0,0,0,0,0,0,0,0,0,0,0,0,0,0,0,0,0,0,0,0,0,0,0,0,0,0,0,0,0,0,0,0,0,0,0,0,0,0,0,0,0,0,0,0,0,0,0,0,0,0,0,0,0,0,0,0,0,0,0,0,0,0,0,0,0,0,0,0,0,0,0,0,0,0
0,0,0,0,0,0,0,0,0,0,0,0,0,0,0,0,0,0,0,0,0,0,0,0,0,0,0,0,0,0,0,0,0,0,0,0,0,0,0,0,0,0,0,0,0,0,0,0,0,0,0,0,0,0,0,0,0,0,0,0,0,0,0,0,0,0,0,0,0,0,0,0,0,0,0,0,0,0,0,0,0,0,0,0,0,0,0,0,0,0,0,0,0,0,0,0,0,0,0,0,0,0,0,0,0,0,0,0,0,0,0,0,0,0,0,0,0,0,0,0,0,0,0,0,0,0,0,0,0,0,0,0,0,0,0,0,0,0,0,0,0,0,0,0,0,0,0,0,0,0,0,0,0,0,0,0,0,0,0,0,0,0,0,0,0,0,0,0,0,0,0,0,0,0,0,0,0,0,0,0,0,0,0,0,0,0,0,0,0,0,0,0,0,0,0,0,0,0,0,0,0,0,0,0,0,0,0,0,0,0,0,0,0,0,0,0,0,0,0,0,0,0,0,0,0,0,0,0,0,0,0,0,0,0,0,0,0,0,0,0,0,0,0,0,0,0,0,370,370,371,371,372,372,372,372,373,373,374,374,374,375,375,375,376,376,377,377,378,378,379,379,379,380,380,381,381,381,382,382,382,383,383,384,385,385,386,386,387,387,387,388,388,389,389,389,390,390,391,391,392,392,393,393,394,394,394,395,395,396,396,396,397,397,398,398,398,399,399,400,400,401,401,402,402,402,403,403,404,404,405,405,406,406,407,407,408,408,408,409,409,410,410,411,411,412,412,413,413,414,414,415,415,415,416,416,417,417,418,418,419,419,420,420,421,421,422,422,423,423,424,424,425,425,426,426,427,428,428,429,429,430,430,431,431,432,432,432,433,433,434,434,435,435,436,436,437,437,438,438,439,440,440,441,442,442,443,443,444,445,445,446,446,446,447,447,448,448,449,449,450,450,451,452,452,453,454,454,455,455,456,457,457,458,458,459,459,460,461,461,462,462,463,463,464,464,465,465,466,467,467,468,469,469,470,471,471,472,473,473,474,475,475,476,477,477,478,479,480,480,481,482,482,483,484,484,485,486,486,487,488,488,489,490,490,491,492,492,493,493,494,494,495,495,496,497,497,498,499,499,500,501,502,502,503,504,504,505,506,506,507,507,508,509,510,510,511,512,513,513,514,514,515,0,0,0,0,0,0,0,518,0,0,0,0,0,0,0,0,0,0,0,0,0,0,0,0,0,0,0,0,0,0,0,0,0,0,0,0,0,0,0,0,0,0,0,0,0,0,0,0,0,0,0,0,0,0,0,0,0,0,0,0,0,0,0,0,0,0,0,0,0,0,0,0,0,0,0,0,0,0,0,0,0,0,0,0,0,0,0,0,0,0,0,0,0,0,0,0,0,0,0,0,0,0,0,0,0,0,0,0,0,0,0,0,0,0,0,0,0,0
0,0,0,0,0,0,0,0,0,0,0,0,0,0,0,0,0,0,0,0,0,0,0,0,0,0,0,0,0,0,0,0,0,0,0,0,0,0,0,0,0,0,0,0,0,0,0,0,0,0,0,0,0,0,0,0,0,0,0,0,0,0,0,0,0,0,0,0,0,0,0,0,0,0,0,0,0,0,0,0,0,0,0,0,0,0,0,0,0,0,0,0,0,0,0,0,0,0,0,0,0,0,0,0,0,0,0,0,0,0,0,0,0,0,0,0,0,0,0,0,0,0,0,0,0,0,0,0,0,0,0,0,0,0,0,0,0,0,0,0,0,0,0,0,0,0,0,0,0,0,0,0,0,0,0,0,0,0,0,0,0,0,0,0,0,0,0,0,0,0,0,0,0,0,0,0,0,0,0,0,0,0,0,0,0,0,0,0,0,0,0,0,0,0,0,0,0,0,0,0,0,0,0,0,0,0,0,0,0,0,0,0,0,0,0,0,0,0,0,0,0,0,0,0,0,0,0,0,0,0,0,0,0,0,0,0,0,0,0,0,0,0,0,0,0,0,0,0,0,0,0,0,0,0,0,0,0,0,0,374,375,375,376,376,377,377,377,378,378,379,379,379,380,380,381,381,382,382,382,383,383,383,384,385,385,386,387,387,387,388,388,388,389,389,390,390,390,391,391,392,392,393,393,394,394,395,395,395,396,396,397,397,397,398,398,399,399,400,400,401,401,402,402,402,403,403,404,404,405,405,406,406,406,407,407,408,408,409,409,410,410,411,411,412,412,413,413,414,414,414,415,415,416,416,416,417,417,418,418,419,420,420,421,421,422,422,422,423,424,424,425,425,426,426,427,427,428,428,429,429,430,430,431,431,432,432,433,433,433,434,434,435,435,436,436,437,438,438,439,439,440,440,441,442,442,443,444,444,445,445,446,446,447,447,448,448,448,449,449,450,451,451,452,453,453,454,454,455,456,456,457,457,458,458,459,460,460,461,461,462,462,463,463,464,464,465,466,466,467,468,468,469,470,470,471,472,472,473,473,474,475,475,476,477,478,478,479,480,481,481,482,483,483,484,485,485,486,487,487,488,488,489,490,490,491,492,492,493,493,494,495,495,496,496,497,498,498,499,500,500,501,502,502,503,504,504,505,506,506,507,508,508,509,510,511,512,512,513,514,514,514,515,0,0,0,0,0,0,0,0,0,0,0,0,0,0,0,0,0,0,0,0,0,0,0,0,0,0,0,0,0,0,0,0,0,0,0,0,0,0,0,0,0,0,0,0,0,0,0,0,0,0,0,0,0,0,0,0,0,0,0,0,0,0,0,0,0,0,0,0,0,0,0,0,0,0,0,0,0,0,0,0,0,0,0,0,0,0,0,0,0,0,0,0,0,0,0,0,0,0,0,0,0,0,0,0,0,0,0,0,0,0,0,0,0,0,0,0,0,0
0,0,0,0,0,0,0,0,0,0,0,0,0,0,0,0,0,0,0,0,0,0,0,0,0,0,0,0,0,0,0,0,0,0,0,0,0,0,0,0,0,0,0,0,0,0,0,0,0,0,0,0,0,0,0,0,0,0,0,0,0,0,0,0,0,0,0,0,0,0,0,0,0,0,0,0,0,0,0,0,0,0,0,0,0,0,0,0,0,0,0,0,0,0,0,0,0,0,0,0,0,0,0,0,0,0,0,0,0,0,0,0,0,0,0,0,0,0,0,0,0,0,0,0,0,0,0,0,0,0,0,0,0,0,0,0,0,0,0,0,0,0,0,0,0,0,0,0,0,0,0,0,0,0,0,0,0,0,0,0,0,0,0,0,0,0,0,0,0,0,0,0,0,0,0,0,0,0,0,0,0,0,0,0,0,0,0,0,0,0,0,0,0,0,0,0,0,0,0,0,0,0,0,0,0,0,0,0,0,0,0,0,0,0,0,0,0,0,0,0,0,0,0,0,0,0,0,0,0,0,0,0,0,0,0,0,0,0,0,0,0,0,0,0,0,0,0,0,0,0,0,0,0,0,0,0,0,0,0,0,0,0,0,0,0,0,0,378,378,379,379,380,380,380,381,381,382,382,382,383,383,384,384,385,386,387,387,387,388,388,388,389,389,389,390,390,391,391,392,392,393,393,394,394,394,395,395,396,396,396,397,397,398,398,398,399,400,400,401,401,402,402,402,403,403,404,404,404,405,405,406,406,407,407,408,408,408,409,409,410,410,411,411,412,412,413,413,414,414,415,415,415,416,416,417,417,418,418,419,419,420,420,421,421,422,422,423,423,424,424,425,425,426,426,427,428,428,429,429,430,430,431,431,431,432,432,433,433,434,434,434,435,435,436,437,437,438,438,439,440,440,441,441,442,443,443,444,444,445,445,446,446,447,447,448,448,449,449,450,450,451,451,452,453,453,454,455,455,456,456,457,458,458,459,459,460,461,461,462,462,463,463,464,464,465,465,466,467,467,468,469,469,470,471,471,472,472,473,473,474,475,476,476,477,478,479,479,480,481,482,482,483,484,484,485,486,486,487,487,488,489,489,490,491,491,492,492,493,494,494,495,495,496,496,497,498,498,499,500,500,501,502,503,503,504,504,505,506,506,507,508,508,509,510,511,512,513,514,514,514,515,0,0,0,0,0,0,0,0,0,0,0,0,0,0,0,0,0,0,0,0,0,0,0,0,0,0,0,0,0,0,0,0,0,0,0,0,0,0,0,0,0,0,0,0,0,0,0,0,0,0,0,0,0,0,0,0,0,0,0,0,0,0,0,0,0,0,0,0,0,0,0,0,0,0,0,0,0,0,0,0,0,0,0,0,0,0,0,0,0,0,0,0,0,0,0,0,0,0,0,0,0,0,0,0,0,0,0,0,0,0,0,0,0,0,0,0,0,0,0
0,0,0,0,0,0,0,0,0,0,0,0,0,0,0,0,0,0,0,0,0,0,0,0,0,0,0,0,0,0,0,0,0,0,0,0,0,0,0,0,0,0,0,0,0,0,0,0,0,0,0,0,0,0,0,0,0,0,0,0,0,0,0,0,0,0,0,0,0,0,0,0,0,0,0,0,0,0,0,0,0,0,0,0,0,0,0,0,0,0,0,0,0,0,0,0,0,0,0,0,0,0,0,0,0,0,0,0,0,0,0,0,0,0,0,0,0,0,0,0,0,0,0,0,0,0,0,0,0,0,0,0,0,0,0,0,0,0,0,0,0,0,0,0,0,0,0,0,0,0,0,0,0,0,0,0,0,0,0,0,0,0,0,0,0,0,0,0,0,0,0,0,0,0,0,0,0,0,0,0,0,0,0,0,0,0,0,0,0,0,0,0,0,0,0,0,0,0,0,0,0,0,0,0,0,0,0,0,0,0,0,0,0,0,0,0,0,0,0,0,0,0,0,0,0,0,0,0,0,0,0,0,0,0,0,0,0,0,0,0,0,0,0,0,0,0,0,0,0,0,0,0,0,0,0,0,0,0,0,0,0,0,0,0,0,0,0,0,0,0,0,0,0,0,0,0,0,0,0,0,0,0,0,0,0,387,387,388,388,388,388,389,389,390,390,390,391,391,392,392,393,393,394,394,395,395,395,396,396,397,397,397,398,398,399,399,400,400,401,401,402,402,403,403,403,404,404,405,405,406,406,406,407,407,408,408,409,409,410,410,411,411,412,412,413,413,414,414,415,415,415,416,416,416,417,417,418,418,419,419,420,421,421,422,422,423,423,424,424,425,425,426,426,427,427,428,428,429,429,430,430,431,431,432,432,433,433,433,434,434,435,435,436,436,437,437,438,439,439,440,440,441,442,442,443,443,444,445,445,446,446,447,447,448,448,448,449,449,450,451,451,452,452,453,454,454,455,455,456,457,457,458,458,459,460,460,461,461,462,463,463,464,464,465,465,466,466,467,468,468,469,470,470,471,471,472,473,473,474,474,475,476,476,477,478,479,480,480,481,482,483,483,484,485,485,486,486,487,488,488,489,490,490,491,491,492,493,493,494,494,495,495,496,497,497,498,498,499,500,500,501,502,503,503,504,504,505,506,506,507,508,509,0,0,513,513,513,514,514,514,0,0,0,0,0,0,0,0,0,0,0,0,0,0,0,0,0,0,0,0,0,0,0,0,0,0,0,0,0,0,0,0,0,0,0,0,0,0,0,0,0,0,0,0,0,0,0,0,0,0,0,0,0,0,0,0,0,0,0,0,0,0,0,0,0,0,0,0,0,0,0,0,0,0,0,0,0,0,0,0,0,0,0,0,0,0,0,0,0,0,0,0,0,0,0,0,0,0,0,0,0,0,0,0,0,0,0,0,0,0,0,0,0,0,0,0,0,0,0,0
0,0,0,0,0,0,0,0,0,0,0,0,0,0,0,0,0,0,0,0,0,0,0,0,0,0,0,0,0,0,0,0,0,0,0,0,0,0,0,0,0,0,0,0,0,0,0,0,0,0,0,0,0,0,0,0,0,0,0,0,0,0,0,0,0,0,0,0,0,0,0,0,0,0,0,0,0,0,0,0,0,0,0,0,0,0,0,0,0,0,0,0,0,0,0,0,0,0,0,0,0,0,0,0,0,0,0,0,0,0,0,0,0,0,0,0,0,0,0,0,0,0,0,0,0,0,0,0,0,0,0,0,0,0,0,0,0,0,0,0,0,0,0,0,0,0,0,0,0,0,0,0,0,0,0,0,0,0,0,0,0,0,0,0,0,0,0,0,0,0,0,0,0,0,0,0,0,0,0,0,0,0,0,0,0,0,0,0,0,0,0,0,0,0,0,0,0,0,0,0,0,0,0,0,0,0,0,0,0,0,0,0,0,0,0,0,0,0,0,0,0,0,0,0,0,0,0,0,0,0,0,0,0,0,0,0,0,0,0,0,0,0,0,0,0,0,0,0,0,0,0,0,0,0,0,0,0,0,0,0,0,0,0,0,0,0,0,0,0,0,0,0,0,0,0,0,0,0,0,0,0,0,0,0,0,0,0,0,0,0,0,0,0,0,0,0,0,0,0,393,393,393,394,394,395,395,396,396,396,397,397,397,398,398,399,399,400,401,401,402,402,403,403,403,404,404,405,405,405,406,406,407,407,408,408,408,409,409,410,410,411,412,412,413,413,414,414,414,415,415,416,416,416,417,417,418,418,419,419,420,420,421,421,422,422,423,423,424,424,425,425,426,426,427,427,428,428,429,430,430,431,431,431,432,432,433,433,434,434,434,435,435,436,436,437,438,438,439,440,440,441,441,442,443,443,444,444,445,445,446,446,447,447,448,448,449,449,450,450,451,451,452,453,453,454,454,455,456,456,457,457,458,459,459,460,461,461,462,462,463,463,464,464,465,465,466,467,467,468,469,469,470,470,471,471,472,473,473,474,474,475,476,477,478,478,479,480,481,482,482,483,484,484,485,486,486,487,487,488,488,489,490,490,491,492,492,493,493,494,495,495,496,496,497,497,498,498,499,500,500,501,502,503,503,504,504,505,506,506,508,509,0,0,0,514,514,514,514,514,0,0,0,0,0,0,0,0,0,0,0,0,0,0,0,0,0,0,0,0,0,0,0,0,0,0,0,0,0,0,0,0,0,0,0,0,0,0,0,0,0,0,0,0,0,0,0,0,0,0,0,0,0,0,0,0,0,0,0,0,0,0,0,0,0,0,0,0,0,0,0,0,0,0,0,0,0,0,0,0,0,0,0,0,0,0,0,0,0,0,0,0,0,0,0,0,0,0,0,0,0,0,0,0,0,0,0,0,0,0,0,0,0,0,0,0,0,0,0,0,0
0,0,0,0,0,0,0,0,0,0,0,0,0,0,0,0,0,0,0,0,0,0,0,0,0,0,0,0,0,0,0,0,0,0,0,0,0,0,0,0,0,0,0,0,0,0,0,0,0,0,0,0,0,0,0,0,0,0,0,0,0,0,0,0,0,0,0,0,0,0,0,0,0,0,0,0,0,0,0,0,0,0,0,0,0,0,0,0,0,0,0,0,0,0,0,0,0,0,0,0,0,0,0,0,0,0,0,0,0,0,0,0,0,0,0,0,0,0,0,0,0,0,0,0,0,0,0,0,0,0,0,0,0,0,0,0,0,0,0,0,0,0,0,0,0,0,0,0,0,0,0,0,0,0,0,0,0,0,0,0,0,0,0,0,0,0,0,0,0,0,0,0,0,0,0,0,0,0,0,0,0,0,0,0,0,0,0,0,0,0,0,0,0,0,0,0,0,0,0,0,0,0,0,0,0,0,0,0,0,0,0,0,0,0,0,0,0,0,0,0,0,0,0,0,0,0,0,0,0,0,0,0,0,0,0,0,0,0,0,0,0,0,0,0,0,0,0,0,0,0,0,0,0,0,0,0,0,0,0,0,0,0,0,0,0,0,0,0,0,0,0,0,0,0,0,0,0,0,0,0,0,0,0,0,0,0,0,0,0,0,0,0,0,0,0,0,0,0,0,0,0,0,0,0,0,0,0,0,0,0,0,0,0,398,399,400,400,401,401,402,402,403,403,404,404,404,405,405,406,406,406,407,407,408,408,408,409,409,410,410,411,412,412,413,414,414,414,415,415,415,416,416,416,417,417,418,418,419,419,420,420,421,422,422,423,423,424,424,425,425,426,426,427,427,428,428,429,429,430,430,431,431,432,432,433,433,433,434,434,435,435,436,436,437,437,438,439,439,440,440,441,442,442,443,443,444,445,445,446,446,447,447,448,448,448,449,449,450,450,451,451,452,453,453,454,455,455,456,456,457,457,458,459,459,460,461,462,462,463,463,464,464,465,465,466,466,467,468,468,469,470,470,471,471,472,472,473,473,474,475,475,476,477,478,479,480,480,481,482,483,483,484,485,485,486,486,487,487,488,488,489,490,490,491,492,493,493,494,494,495,495,496,496,497,497,498,499,499,500,501,501,502,503,503,504,504,505,506,507,509,510,0,0,0,0,515,515,0,0,0,0,0,0,0,0,0,0,0,0,0,0,0,0,0,0,0,0,0,0,0,0,0,0,0,0,0,0,0,0,0,0,0,0,0,0,0,0,0,0,0,0,0,0,0,0,0,0,0,0,0,0,0,0,0,0,0,0,0,0,0,0,0,0,0,0,0,0,0,0,0,0,0,0,0,0,0,0,0,0,0,0,0,0,0,0,0,0,0,0,0,0,0,0,0,0,0,0,0,0,0,0,0,0,0,0,0,0,0,0,0,0,0,0,0,0,0,0,0,0,0
0,0,0,0,0,0,0,0,0,0,0,0,0,0,0,0,0,0,0,0,0,0,0,0,0,0,0,0,0,0,0,0,0,0,0,0,0,0,0,0,0,0,0,0,0,0,0,0,0,0,0,0,0,0,0,0,0,0,0,0,0,0,0,0,0,0,0,0,0,0,0,0,0,0,0,0,0,0,0,0,0,0,0,0,0,0,0,0,0,0,0,0,0,0,0,0,0,0,0,0,0,0,0,0,0,0,0,0,0,0,0,0,0,0,0,0,0,0,0,0,0,0,0,0,0,0,0,0,0,0,0,0,0,0,0,0,0,0,0,0,0,0,0,0,0,0,0,0,0,0,0,0,0,0,0,0,0,0,0,0,0,0,0,0,0,0,0,0,0,0,0,0,0,0,0,0,0,0,0,0,0,0,0,0,0,0,0,0,0,0,0,0,0,0,0,0,0,0,0,0,0,0,0,0,0,0,0,0,0,0,0,0,0,0,0,0,0,0,0,0,0,0,0,0,0,0,0,0,0,0,0,0,0,0,0,0,0,0,0,0,0,0,0,0,0,0,0,0,0,0,0,0,0,0,0,0,0,0,0,0,0,0,0,0,0,0,0,0,0,0,0,0,0,0,0,0,0,0,0,0,0,0,0,0,0,0,0,0,0,0,0,0,0,0,0,0,0,0,0,0,0,0,0,0,0,0,0,0,0,0,0,0,0,0,0,0,0,0,0,0,0,0,0,0,0,405,405,405,406,406,407,407,407,408,408,409,409,410,410,411,411,412,413,413,414,414,415,415,415,416,416,416,417,417,417,418,418,419,420,420,421,421,422,422,423,423,424,424,425,425,426,426,427,427,428,428,429,429,430,431,431,432,432,432,433,433,434,434,434,435,436,436,437,437,438,438,439,440,440,441,441,442,442,443,444,444,445,445,446,446,447,447,448,448,449,449,450,450,451,451,452,452,453,454,454,455,455,456,457,457,458,458,459,460,460,461,462,462,463,463,464,464,465,465,466,467,467,468,468,469,470,470,471,471,472,472,473,473,474,475,476,477,478,479,480,480,481,481,482,483,484,484,485,486,486,487,487,488,488,0,489,490,491,491,492,493,494,494,494,495,496,496,497,497,0,0,499,499,500,501,502,502,503,503,504,504,505,507,510,512,0,0,0,0,0,0,0,0,0,0,0,0,0,0,0,0,0,0,0,0,0,0,0,0,0,0,0,0,0,0,0,0,0,0,0,0,0,0,0,0,0,0,0,0,0,0,0,0,0,0,0,0,0,0,0,0,0,0,0,0,0,0,0,0,0,0,0,0,0,0,0,0,0,0,0,0,0,0,0,0,0,0,0,0,0,0,0,0,0,0,0,0,0,0,0,0,0,0,0,0,0,0,0,0,0,0,0,0,0,0,0,0,0,0,0,0,0,0,0,0,0,0,0,0,0,0,0,0,0,0
0,0,0,0,0,0,0,0,0,0,0,0,0,0,0,0,0,0,0,0,0,0,0,0,0,0,0,0,0,0,0,0,0,0,0,0,0,0,0,0,0,0,0,0,0,0,0,0,0,0,0,0,0,0,0,0,0,0,0,0,0,0,0,0,0,0,0,0,0,0,0,0,0,0,0,0,0,0,0,0,0,0,0,0,0,0,0,0,0,0,0,0,0,0,0,0,0,0,0,0,0,0,0,0,0,0,0,0,0,0,0,0,0,0,0,0,0,0,0,0,0,0,0,0,0,0,0,0,0,0,0,0,0,0,0,0,0,0,0,0,0,0,0,0,0,0,0,0,0,0,0,0,0,0,0,0,0,0,0,0,0,0,0,0,0,0,0,0,0,0,0,0,0,0,0,0,0,0,0,0,0,0,0,0,0,0,0,0,0,0,0,0,0,0,0,0,0,0,0,0,0,0,0,0,0,0,0,0,0,0,0,0,0,0,0,0,0,0,0,0,0,0,0,0,0,0,0,0,0,0,0,0,0,0,0,0,0,0,0,0,0,0,0,0,0,0,0,0,0,0,0,0,0,0,0,0,0,0,0,0,0,0,0,0,0,0,0,0,0,0,0,0,0,0,0,0,0,0,0,0,0,0,0,0,0,0,0,0,0,0,0,0,0,0,0,0,0,0,0,0,0,0,0,0,0,0,0,0,0,0,0,0,0,0,0,0,0,0,0,0,0,0,0,0,0,0,0,0,0,0,0,0,0,0,0,0,0,0,0,0,0,0,0,414,414,414,415,415,415,416,416,416,417,417,418,418,419,419,420,420,421,422,422,423,423,424,424,425,425,426,426,426,427,427,428,428,429,430,430,431,431,432,432,433,433,433,434,434,435,435,436,436,437,438,438,439,439,440,440,441,442,442,443,443,444,444,445,446,446,447,447,447,448,448,449,449,450,450,451,451,452,452,453,454,454,455,456,456,457,457,458,459,459,460,461,461,462,463,463,464,464,464,465,466,466,467,467,468,469,469,470,470,471,471,472,472,473,473,474,475,476,477,478,479,480,481,481,482,483,483,484,485,485,486,486,487,487,488,0,0,0,490,491,492,493,493,0,0,0,0,0,496,497,0,0,0,0,499,500,501,502,502,503,503,504,504,506,508,511,0,0,0,0,0,0,0,0,0,0,0,0,0,0,0,0,0,0,0,0,0,0,0,0,0,0,0,0,0,0,0,0,0,0,0,0,0,0,0,0,0,0,0,0,0,0,0,0,0,0,0,0,0,0,0,0,0,0,0,0,0,0,0,0,0,0,0,0,0,0,0,0,0,0,0,0,0,0,0,0,0,0,0,0,0,0,0,0,0,0,0,0,0,0,0,0,0,0,0,0,0,0,0,0,0,0,0,0,0,0,0,0,0,0,0,0,0,0,0,0,0,0,0,0,0,0,0,0,0,0,0
