0.0,0.0,0.0,0.0,0.0,0.0,0.0,0.0,0.0,0.0,0.0,0.0,0.0,0.0,0.0,0.0,0.0,0.0,0.0,0.0,-1.29175843515,-1.29175843515,-1.28062258657,-1.28062258657,-1.28062258657,-1.26948673799,-1.26948673799,-1.25835088942,-1.25835088942,-1.25835088942,-1.24721504084,-1.24721504084,-1.24721504084,-1.23607919226,-1.23607919226,-1.23607919226,-1.22494334368,-1.22494334368,-1.2138074951,-1.2138074951,-1.2138074951,-1.20267164652,-1.20267164652,-1.20267164652,-1.19153579794,-1.19153579794,-1.18039994936,-1.18039994936,-1.18039994936,-1.16926410078,-1.16926410078,-1.15812825221,-1.15812825221,-1.15812825221,-1.14699240363,-1.14699240363,-1.13585655505,-1.13585655505,-1.13585655505,-1.12472070647,-1.12472070647,-1.12472070647,-1.11358485789,-1.11358485789,-1.10244900931,-1.10244900931,-1.09131316073,-1.09131316073,-1.08017731215,-1.08017731215,-1.06904146357,-1.06904146357,-1.06904146357,-1.057905615,-1.057905615,-1.04676976642,-1.04676976642,-1.03563391784,-1.03563391784,-1.02449806926,-1.02449806926,-1.02449806926,-1.01336222068,-1.01336222068,-1.0022263721,-1.0022263721,-1.0022263721,-0.991090523522,-0.991090523522,-0.979954674943,-0.979954674943,-0.968818826365,-0.968818826365,-0.957682977786,-0.957682977786,-0.946547129207,-0.946547129207,-0.935411280628,-0.935411280628,-0.924275432049,-0.924275432049,-0.91313958347,-0.91313958347,-0.902003734891,-0.902003734891,-0.902003734891,-0.890867886312,-0.890867886312,-0.879732037733,-0.879732037733,-0.868596189154,-0.868596189154,-0.857460340576,-0.857460340576,-0.846324491997,-0.846324491997,-0.835188643418,-0.835188643418,-0.824052794839,-0.824052794839,-0.81291694626,-0.81291694626,-0.801781097681,-0.801781097681,-0.790645249102,-0.790645249102,-0.779509400523,-0.779509400523,-0.768373551944,-0.768373551944,-0.757237703365,-0.757237703365,-0.746101854787,-0.746101854787,-0.734966006208,-0.734966006208,-0.723830157629,-0.723830157629,-0.71269430905,-0.701558460471,-0.701558460471,-0.690422611892,-0.690422611892,-0.679286763313,-0.679286763313,-0.668150914734,-0.657015066155,-0.657015066155,-0.645879217576,-0.645879217576,-0.634743368997,-0.634743368997,-0.623607520419,-0.623607520419,-0.61247167184,-0.61247167184,-0.601335823261,-0.601335823261,-0.590199974682,-0.590199974682,-0.579064126103,-0.579064126103,-0.567928277524,-0.567928277524,-0.556792428945,-0.545656580366,-0.545656580366,-0.534520731787,-0.523384883208,-0.523384883208,-0.51224903463,-0.51224903463,-0.501113186051,-0.501113186051,-0.489977337472,-0.489977337472,-0.478841488893,-0.478841488893,-0.467705640314,-0.456569791735,-0.456569791735,-0.445433943156,-0.445433943156,-0.434298094577,-0.423162245998,-0.423162245998,-0.412026397419,-0.412026397419,-0.400890548841,-0.400890548841,-0.389754700262,-0.378618851683,-0.378618851683,-0.367483003104,-0.356347154525,-0.356347154525,-0.345211305946,-0.334075457367,-0.334075457367,-0.322939608788,-0.322939608788,-0.311803760209,-0.311803760209,-0.30066791163,-0.289532063051,-0.289532063051,-0.278396214473,-0.278396214473,-0.267260365894,-0.267260365894,-0.256124517315,-0.244988668736,-0.244988668736,-0.233852820157,-0.222716971578,-0.222716971578,-0.211581122999,-0.211581122999,-0.20044527442,-0.189309425841,-0.189309425841,-0.178173577262,-0.167037728684,-0.167037728684,-0.155901880105,-0.144766031526,-0.133630182947,-0.133630182947,-0.122494334368,-0.111358485789,-0.111358485789,-0.10022263721,-0.10022263721,-0.0890867886312,-0.0779509400523,-0.0779509400523,-0.0668150914734,-0.0556792428945,-0.0556792428945,-0.0445433943156,-0.0334075457367,-0.0334075457367,-0.0222716971578,-0.0111358485789,-0.0111358485789,0.0,0.0111358485789,0.0111358485789,0.0222716971578,0.0334075457367,0.0445433943156,0.0445433943156,0.0556792428945,0.0556792428945,0.0668150914734,0.0779509400523,0.0779509400523,0.0890867886312,0.10022263721,0.10022263721,0.111358485789,0.122494334368,0.133630182947,0.133630182947,0.144766031526,0.155901880105,0.167037728684,0.167037728684,0.178173577262,0.189309425841,0.189309425841,0.20044527442,0.211581122999,0.222716971578,0.222716971578,0.233852820157,0.244988668736,0.244988668736,0.256124517315,0.267260365894,0.267260365894,0.278396214473,0.289532063051,0.30066791163,0.311803760209,0.322939608788,0.322939608788,0.334075457367,0.345211305946,0.356347154525,0.356347154525,0.367483003104,0.378618851683,0.389754700262,0.400890548841,0.412026397419,0.423162245998,0.423162245998,0.434298094577,0.445433943156,0.456569791735,0.456569791735,0.467705640314,0.478841488893,0.489977337472,0.501113186051,0.501113186051,0.51224903463,0.523384883208,0.534520731787,0.545656580366,0.556792428945,0.567928277524,0.579064126103,0.590199974682,0.601335823261,0.601335823261,0.61247167184,0.623607520419,0.634743368997,0.645879217576,0.657015066155,0.657015066155,0.668150914734,0.679286763313,0.690422611892,0.701558460471,0.71269430905,0.71269430905,0.723830157629,0.734966006208,0.746101854787,0.757237703365,0.768373551944,0.779509400523,0.790645249102,0.801781097681,0.81291694626,0.824052794839,0.835188643418,0.835188643418,0.846324491997,0.857460340576,0.868596189154,0.879732037733,0.890867886312,0.902003734891,0.91313958347,0.924275432049,0.935411280628,0.946547129207,0.957682977786,0.968818826365,0.979954674943,0.991090523522,1.0022263721,1.01336222068,1.02449806926,1.03563391784,1.04676976642,1.057905615,1.06904146357,1.08017731215,1.09131316073,1.10244900931,1.10244900931,1.11358485789,1.12472070647,1.13585655505,1.15812825221,1.16926410078,1.18039994936,1.19153579794,1.19153579794,1.20267164652,1.22494334368,1.23607919226,1.24721504084,1.26948673799,1.28062258657,1.29175843515,1.30289428373,1.31403013231,1.32516598089,1.34743767805,1.35857352663,1.36970937521,1.38084522378,1.39198107236,1.40311692094,1.41425276952,1.4253886181,1.43652446668,1.44766031526,1.45879616384,1.49220370957,1.52561125531,1.53674710389,0.0,0.0,0.0,0.0,0.0,0.0,0.0,0.0,0.0,0.0,0.0,0.0,0.0,0.0,0.0,0.0,0.0,0.0,0.0,0.0,0.0,0.0,0.0,0.0,0.0,0.0,0.0,0.0,0.0,0.0,0.0,0.0,0.0,0.0,0.0,0.0,0.0,0.0,0.0,0.0,0.0,0.0,0.0,0.0,0.0,0.0,0.0,0.0,0.0,0.0,0.0,0.0,0.0,0.0,0.0,0.0,0.0,0.0,0.0,0.0,0.0,0.0,0.0,0.0,0.0,0.0,0.0,0.0,0.0,0.0,0.0,0.0,0.0,0.0,0.0,0.0,0.0,0.0,0.0,0.0,0.0,0.0,0.0,0.0,0.0,0.0,0.0,0.0,0.0,0.0,0.0,0.0,0.0,0.0,0.0,0.0,0.0,0.0,0.0,0.0,0.0,0.0,0.0,0.0,0.0,0.0,0.0,0.0,0.0,0.0,0.0,0.0,0.0,0.0,0.0,0.0,0.0,0.0,0.0,0.0,0.0,0.0,0.0,0.0,0.0,0.0,0.0,0.0
0.0,0.0,0.0,0.0,0.0,0.0,0.0,0.0,0.0,0.0,0.0,0.0,0.0,0.0,0.0,0.0,0.0,0.0,0.0,0.0,0.0,0.0,0.0,0.0,0.0,0.0,-1.25835088942,-1.25835088942,-1.25835088942,-1.24721504084,-1.24721504084,-1.24721504084,-1.23607919226,-1.23607919226,-1.23607919226,-1.22494334368,-1.22494334368,-1.22494334368,-1.2138074951,-1.2138074951,-1.2138074951,-1.20267164652,-1.20267164652,-1.19153579794,-1.19153579794,-1.19153579794,-1.18039994936,-1.18039994936,-1.16926410078,-1.16926410078,-1.15812825221,-1.15812825221,-1.15812825221,-1.14699240363,-1.14699240363,-1.14699240363,-1.13585655505,-1.13585655505,-1.13585655505,-1.12472070647,-1.12472070647,-1.11358485789,-1.11358485789,-1.10244900931,-1.10244900931,-1.09131316073,-1.09131316073,-1.08017731215,-1.08017731215,-1.08017731215,-1.06904146357,-1.06904146357,-1.057905615,-1.057905615,-1.04676976642,-1.04676976642,-1.03563391784,-1.03563391784,-1.03563391784,-1.02449806926,-1.02449806926,-1.01336222068,-1.01336222068,-1.01336222068,-1.0022263721,-1.0022263721,-0.991090523522,-0.991090523522,-0.991090523522,-0.979954674943,-0.979954674943,-0.968818826365,-0.968818826365,-0.957682977786,-0.946547129207,-0.946547129207,-0.935411280628,-0.935411280628,-0.935411280628,-0.924275432049,-0.924275432049,-0.91313958347,-0.91313958347,-0.902003734891,-0.902003734891,-0.890867886312,-0.890867886312,-0.879732037733,-0.879732037733,-0.879732037733,-0.868596189154,-0.868596189154,-0.857460340576,-0.857460340576,-0.846324491997,-0.846324491997,-0.835188643418,-0.835188643418,-0.824052794839,-0.824052794839,-0.81291694626,-0.81291694626,-0.801781097681,-0.801781097681,-0.790645249102,-0.790645249102,-0.779509400523,-0.768373551944,-0.768373551944,-0.768373551944,-0.757237703365,-0.757237703365,-0.746101854787,-0.746101854787,-0.734966006208,-0.734966006208,-0.723830157629,-0.71269430905,-0.71269430905,-0.701558460471,-0.701558460471,-0.690422611892,-0.690422611892,-0.679286763313,-0.668150914734,-0.668150914734,-0.657015066155,-0.657015066155,-0.645879217576,-0.645879217576,-0.634743368997,-0.634743368997,-0.623607520419,-0.623607520419,-0.61247167184,-0.61247167184,-0.601335823261,-0.601335823261,-0.590199974682,-0.590199974682,-0.579064126103,-0.579064126103,-0.567928277524,-0.567928277524,-0.556792428945,-0.545656580366,-0.545656580366,-0.534520731787,-0.523384883208,-0.523384883208,-0.51224903463,-0.51224903463,-0.501113186051,-0.501113186051,-0.489977337472,-0.489977337472,-0.478841488893,-0.478841488893,-0.467705640314,-0.456569791735,-0.456569791735,-0.445433943156,-0.445433943156,-0.434298094577,-0.434298094577,-0.423162245998,-0.412026397419,-0.412026397419,-0.400890548841,-0.400890548841,-0.389754700262,-0.378618851683,-0.378618851683,-0.367483003104,-0.367483003104,-0.356347154525,-0.345211305946,-0.345211305946,-0.334075457367,-0.322939608788,-0.322939608788,-0.311803760209,-0.311803760209,-0.30066791163,-0.289532063051,-0.289532063051,-0.278396214473,-0.278396214473,-0.267260365894,-0.267260365894,-0.256124517315,-0.244988668736,-0.244988668736,-0.233852820157,-0.222716971578,-0.222716971578,-0.211581122999,-0.211581122999,-0.20044527442,-0.189309425841,-0.189309425841,-0.178173577262,-0.167037728684,-0.167037728684,-0.155901880105,-0.144766031526,-0.133630182947,-0.133630182947,-0.122494334368,-0.122494334368,-0.111358485789,-0.10022263721,-0.10022263721,-0.0890867886312,-0.0779509400523,-0.0779509400523,-0.0668150914734,-0.0556792428945,-0.0556792428945,-0.0445433943156,-0.0334075457367,-0.0334075457367,-0.0222716971578,-0.0111358485789,-0.0111358485789,0.0,0.0111358485789,0.0222716971578,0.0222716971578,0.0334075457367,0.0445433943156,0.0445433943156,0.0556792428945,0.0668150914734,0.0668150914734,0.0779509400523,0.0779509400523,0.0890867886312,0.10022263721,0.10022263721,0.111358485789,0.122494334368,0.133630182947,0.133630182947,0.144766031526,0.155901880105,0.167037728684,0.167037728684,0.178173577262,0.189309425841,0.189309425841,0.20044527442,0.211581122999,0.222716971578,0.222716971578,0.233852820157,0.244988668736,0.244988668736,0.256124517315,0.267260365894,0.278396214473,0.278396214473,0.289532063051,0.30066791163,0.311803760209,0.322939608788,0.322939608788,0.334075457367,0.345211305946,0.345211305946,0.356347154525,0.367483003104,0.378618851683,0.389754700262,0.400890548841,0.412026397419,0.412026397419,0.423162245998,0.434298094577,0.445433943156,0.456569791735,0.456569791735,0.467705640314,0.478841488893,0.489977337472,0.501113186051,0.51224903463,0.51224903463,0.523384883208,0.534520731787,0.545656580366,0.556792428945,0.567928277524,0.579064126103,0.590199974682,0.601335823261,0.601335823261,0.61247167184,0.623607520419,0.634743368997,0.645879217576,0.657015066155,0.657015066155,0.668150914734,0.679286763313,0.690422611892,0.701558460471,0.71269430905,0.71269430905,0.723830157629,0.734966006208,0.746101854787,0.757237703365,0.768373551944,0.779509400523,0.790645249102,0.801781097681,0.81291694626,0.81291694626,0.824052794839,0.835188643418,0.846324491997,0.857460340576,0.868596189154,0.879732037733,0.890867886312,0.902003734891,0.91313958347,0.924275432049,0.935411280628,0.946547129207,0.957682977786,0.968818826365,0.979954674943,0.991090523522,1.0022263721,1.01336222068,1.02449806926,1.03563391784,1.04676976642,1.057905615,1.06904146357,1.08017731215,1.09131316073,1.09131316073,1.10244900931,1.11358485789,1.12472070647,1.13585655505,1.14699240363,1.16926410078,1.18039994936,1.19153579794,1.20267164652,1.2138074951,1.22494334368,1.23607919226,1.25835088942,1.26948673799,1.29175843515,1.29175843515,1.31403013231,1.32516598089,1.33630182947,1.34743767805,1.35857352663,1.36970937521,1.38084522378,1.39198107236,1.40311692094,1.41425276952,1.4253886181,1.4253886181,1.43652446668,1.45879616384,1.49220370957,1.52561125531,1.53674710389,0.0,0.0,0.0,0.0,0.0,0.0,0.0,0.0,0.0,0.0,0.0,0.0,0.0,0.0,0.0,0.0,0.0,0.0,0.0,0.0,0.0,0.0,0.0,0.0,0.0,0.0,0.0,0.0,0.0,0.0,0.0,0.0,0.0,0.0,0.0,0.0,0.0,0.0,0.0,0.0,0.0,0.0,0.0,0.0,0.0,0.0,0.0,0.0,0.0,0.0,0.0,0.0,0.0,0.0,0.0,0.0,0.0,0.0,0.0,0.0,0.0,0.0,0.0,0.0,0.0,0.0,0.0,0.0,0.0,0.0,0.0,0.0,0.0,0.0,0.0,0.0,0.0,0.0,0.0,0.0,0.0,0.0,0.0,0.0,0.0,0.0,0.0,0.0,0.0,0.0,0.0,0.0,0.0,0.0,0.0,0.0,0.0,0.0,0.0,0.0,0.0,0.0,0.0,0.0,0.0,0.0,0.0,0.0,0.0,0.0,0.0,0.0,0.0,0.0,0.0,0.0,0.0,0.0,0.0,0.0,0.0,0.0,0.0,0.0,0.0,0.0,0.0,0.0
0.0,0.0,0.0,0.0,0.0,0.0,0.0,0.0,0.0,0.0,0.0,0.0,0.0,0.0,0.0,0.0,0.0,0.0,0.0,0.0,0.0,0.0,0.0,0.0,0.0,0.0,0.0,0.0,0.0,0.0,0.0,0.0,0.0,-1.23607919226,-1.22494334368,-1.22494334368,-1.22494334368,-1.2138074951,-1.2138074951,-1.2138074951,-1.20267164652,-1.20267164652,-1.20267164652,-1.19153579794,-1.19153579794,-1.18039994936,-1.18039994936,-1.16926410078,-1.16926410078,-1.16926410078,-1.15812825221,-1.15812825221,-1.15812825221,-1.14699240363,-1.14699240363,-1.14699240363,-1.13585655505,-1.13585655505,-1.12472070647,-1.12472070647,-1.12472070647,-1.11358485789,-1.11358485789,-1.10244900931,-1.10244900931,-1.09131316073,-1.09131316073,-1.08017731215,-1.08017731215,-1.06904146357,-1.06904146357,-1.057905615,-1.057905615,-1.04676976642,-1.04676976642,-1.04676976642,-1.03563391784,-1.03563391784,-1.02449806926,-1.02449806926,-1.02449806926,-1.01336222068,-1.01336222068,-1.0022263721,-1.0022263721,-1.0022263721,-0.991090523522,-0.991090523522,-0.979954674943,-0.979954674943,-0.968818826365,-0.968818826365,-0.957682977786,-0.957682977786,-0.946547129207,-0.946547129207,-0.935411280628,-0.935411280628,-0.924275432049,-0.924275432049,-0.91313958347,-0.91313958347,-0.91313958347,-0.902003734891,-0.902003734891,-0.890867886312,-0.890867886312,-0.879732037733,-0.879732037733,-0.868596189154,-0.868596189154,-0.868596189154,-0.857460340576,-0.857460340576,-0.846324491997,-0.846324491997,-0.835188643418,-0.835188643418,-0.824052794839,-0.824052794839,-0.81291694626,-0.801781097681,-0.801781097681,-0.790645249102,-0.790645249102,-0.779509400523,-0.779509400523,-0.768373551944,-0.768373551944,-0.757237703365,-0.757237703365,-0.757237703365,-0.746101854787,-0.746101854787,-0.734966006208,-0.723830157629,-0.723830157629,-0.71269430905,-0.71269430905,-0.701558460471,-0.701558460471,-0.690422611892,-0.679286763313,-0.679286763313,-0.668150914734,-0.668150914734,-0.657015066155,-0.657015066155,-0.645879217576,-0.645879217576,-0.634743368997,-0.634743368997,-0.623607520419,-0.623607520419,-0.61247167184,-0.61247167184,-0.601335823261,-0.601335823261,-0.590199974682,-0.590199974682,-0.579064126103,-0.579064126103,-0.567928277524,-0.556792428945,-0.556792428945,-0.545656580366,-0.545656580366,-0.534520731787,-0.523384883208,-0.523384883208,-0.51224903463,-0.51224903463,-0.501113186051,-0.501113186051,-0.489977337472,-0.489977337472,-0.478841488893,-0.478841488893,-0.467705640314,-0.456569791735,-0.456569791735,-0.445433943156,-0.445433943156,-0.434298094577,-0.434298094577,-0.423162245998,-0.412026397419,-0.412026397419,-0.400890548841,-0.400890548841,-0.389754700262,-0.378618851683,-0.378618851683,-0.367483003104,-0.367483003104,-0.356347154525,-0.345211305946,-0.334075457367,-0.334075457367,-0.322939608788,-0.322939608788,-0.311803760209,-0.311803760209,-0.30066791163,-0.289532063051,-0.289532063051,-0.278396214473,-0.278396214473,-0.267260365894,-0.267260365894,-0.256124517315,-0.244988668736,-0.244988668736,-0.233852820157,-0.222716971578,-0.222716971578,-0.211581122999,-0.211581122999,-0.20044527442,-0.189309425841,-0.189309425841,-0.178173577262,-0.167037728684,-0.167037728684,-0.155901880105,-0.144766031526,-0.144766031526,-0.133630182947,-0.122494334368,-0.122494334368,-0.111358485789,-0.10022263721,-0.10022263721,-0.0890867886312,-0.0779509400523,-0.0779509400523,-0.0668150914734,-0.0556792428945,-0.0556792428945,-0.0445433943156,-0.0334075457367,-0.0334075457367,-0.0222716971578,-0.0111358485789,-0.0111358485789,0.0,0.0111358485789,0.0222716971578,0.0222716971578,0.0334075457367,0.0445433943156,0.0445433943156,0.0556792428945,0.0668150914734,0.0668150914734,0.0779509400523,0.0779509400523,0.0890867886312,0.10022263721,0.10022263721,0.111358485789,0.122494334368,0.122494334368,0.133630182947,0.144766031526,0.155901880105,0.155901880105,0.167037728684,0.178173577262,0.189309425841,0.189309425841,0.20044527442,0.211581122999,0.222716971578,0.222716971578,0.233852820157,0.244988668736,0.244988668736,0.256124517315,0.267260365894,0.278396214473,0.289532063051,0.289532063051,0.30066791163,0.311803760209,0.322939608788,0.322939608788,0.334075457367,0.345211305946,0.345211305946,0.356347154525,0.367483003104,0.378618851683,0.389754700262,0.400890548841,0.400890548841,0.412026397419,0.423162245998,0.434298094577,0.445433943156,0.456569791735,0.456569791735,0.467705640314,0.478841488893,0.489977337472,0.501113186051,0.51224903463,0.51224903463,0.523384883208,0.534520731787,0.545656580366,0.556792428945,0.567928277524,0.579064126103,0.590199974682,0.601335823261,0.601335823261,0.61247167184,0.623607520419,0.634743368997,0.634743368997,0.645879217576,0.657015066155,0.668150914734,0.679286763313,0.690422611892,0.701558460471,0.701558460471,0.71269430905,0.723830157629,0.734966006208,0.746101854787,0.757237703365,0.768373551944,0.779509400523,0.790645249102,0.801781097681,0.801781097681,0.81291694626,0.824052794839,0.835188643418,0.846324491997,0.857460340576,0.868596189154,0.879732037733,0.890867886312,0.902003734891,0.91313958347,0.924275432049,0.935411280628,0.946547129207,0.957682977786,0.968818826365,0.979954674943,0.991090523522,1.0022263721,1.01336222068,1.02449806926,1.03563391784,1.04676976642,1.057905615,1.06904146357,1.08017731215,1.08017731215,1.09131316073,1.10244900931,1.11358485789,1.12472070647,1.13585655505,1.14699240363,1.16926410078,1.18039994936,1.19153579794,1.20267164652,1.2138074951,1.22494334368,1.24721504084,1.25835088942,1.28062258657,1.29175843515,1.30289428373,1.31403013231,1.32516598089,1.33630182947,1.34743767805,1.35857352663,1.36970937521,1.38084522378,1.39198107236,1.40311692094,1.41425276952,1.4253886181,1.4253886181,1.43652446668,1.45879616384,1.48106786099,1.51447540673,1.53674710389,0.0,0.0,0.0,0.0,0.0,0.0,0.0,0.0,0.0,0.0,0.0,0.0,0.0,0.0,0.0,0.0,0.0,0.0,0.0,0.0,0.0,0.0,0.0,0.0,0.0,0.0,0.0,0.0,0.0,0.0,0.0,0.0,0.0,0.0,0.0,0.0,0.0,0.0,0.0,0.0,0.0,0.0,0.0,0.0,0.0,0.0,0.0,0.0,0.0,0.0,0.0,0.0,0.0,0.0,0.0,0.0,0.0,0.0,0.0,0.0,0.0,0.0,0.0,0.0,0.0,0.0,0.0,0.0,0.0,0.0,0.0,0.0,0.0,0.0,0.0,0.0,0.0,0.0,0.0,0.0,0.0,0.0,0.0,0.0,0.0,0.0,0.0,0.0,0.0,0.0,0.0,0.0,0.0,0.0,0.0,0.0,0.0,0.0,0.0,0.0,0.0,0.0,0.0,0.0,0.0,0.0,0.0,0.0,0.0,0.0,0.0,0.0,0.0,0.0,0.0,0.0,0.0,0.0,0.0,0.0,0.0,0.0,0.0,0.0,0.0,0.0,0.0,0.0
0.0,0.0,0.0,0.0,0.0,0.0,0.0,0.0,0.0,0.0,0.0,0.0,0.0,0.0,0.0,0.0,0.0,0.0,0.0,0.0,0.0,0.0,0.0,0.0,0.0,0.0,0.0,0.0,0.0,0.0,0.0,0.0,0.0,0.0,0.0,0.0,-1.22494334368,-1.2138074951,-1.2138074951,-1.2138074951,-1.20267164652,-1.20267164652,-1.19153579794,-1.19153579794,-1.19153579794,-1.18039994936,-1.18039994936,-1.16926410078,-1.16926410078,-1.15812825221,-1.15812825221,-1.15812825221,-1.14699240363,-1.14699240363,-1.14699240363,-1.13585655505,-1.13585655505,-1.13585655505,-1.12472070647,-1.12472070647,-1.11358485789,-1.11358485789,-1.10244900931,-1.10244900931,-1.09131316073,-1.09131316073,-1.08017731215,-1.08017731215,-1.06904146357,-1.06904146357,-1.057905615,-1.057905615,-1.057905615,-1.04676976642,-1.04676976642,-1.03563391784,-1.03563391784,-1.03563391784,-1.02449806926,-1.02449806926,-1.01336222068,-1.01336222068,-1.01336222068,-1.0022263721,-1.0022263721,-0.991090523522,-0.991090523522,-0.979954674943,-0.979954674943,-0.979954674943,-0.968818826365,-0.968818826365,-0.957682977786,-0.957682977786,-0.946547129207,-0.935411280628,-0.935411280628,-0.924275432049,-0.924275432049,-0.924275432049,-0.91313958347,-0.91313958347,-0.902003734891,-0.902003734891,-0.902003734891,-0.890867886312,-0.890867886312,-0.879732037733,-0.879732037733,-0.868596189154,-0.868596189154,-0.857460340576,-0.857460340576,-0.846324491997,-0.846324491997,-0.835188643418,-0.835188643418,-0.824052794839,-0.824052794839,-0.81291694626,-0.81291694626,-0.801781097681,-0.801781097681,-0.790645249102,-0.790645249102,-0.779509400523,-0.779509400523,-0.768373551944,-0.768373551944,-0.757237703365,-0.757237703365,-0.746101854787,-0.746101854787,-0.734966006208,-0.734966006208,-0.723830157629,-0.723830157629,-0.71269430905,-0.71269430905,-0.701558460471,-0.701558460471,-0.690422611892,-0.679286763313,-0.679286763313,-0.668150914734,-0.668150914734,-0.657015066155,-0.657015066155,-0.645879217576,-0.645879217576,-0.634743368997,-0.634743368997,-0.623607520419,-0.623607520419,-0.61247167184,-0.61247167184,-0.601335823261,-0.601335823261,-0.590199974682,-0.590199974682,-0.579064126103,-0.579064126103,-0.567928277524,-0.556792428945,-0.556792428945,-0.545656580366,-0.545656580366,-0.534520731787,-0.523384883208,-0.523384883208,-0.51224903463,-0.51224903463,-0.501113186051,-0.501113186051,-0.489977337472,-0.489977337472,-0.478841488893,-0.478841488893,-0.467705640314,-0.456569791735,-0.456569791735,-0.445433943156,-0.445433943156,-0.434298094577,-0.434298094577,-0.423162245998,-0.412026397419,-0.412026397419,-0.400890548841,-0.400890548841,-0.389754700262,-0.378618851683,-0.378618851683,-0.367483003104,-0.356347154525,-0.356347154525,-0.345211305946,-0.334075457367,-0.334075457367,-0.322939608788,-0.322939608788,-0.311803760209,-0.311803760209,-0.30066791163,-0.30066791163,-0.289532063051,-0.278396214473,-0.278396214473,-0.267260365894,-0.267260365894,-0.256124517315,-0.244988668736,-0.244988668736,-0.233852820157,-0.233852820157,-0.222716971578,-0.211581122999,-0.211581122999,-0.20044527442,-0.189309425841,-0.189309425841,-0.178173577262,-0.167037728684,-0.167037728684,-0.155901880105,-0.144766031526,-0.144766031526,-0.133630182947,-0.122494334368,-0.122494334368,-0.111358485789,-0.10022263721,-0.10022263721,-0.0890867886312,-0.0890867886312,-0.0779509400523,-0.0668150914734,-0.0668150914734,-0.0556792428945,-0.0445433943156,-0.0334075457367,-0.0334075457367,-0.0222716971578,-0.0111358485789,-0.0111358485789,0.0,0.0111358485789,0.0222716971578,0.0222716971578,0.0334075457367,0.0445433943156,0.0445433943156,0.0556792428945,0.0668150914734,0.0668150914734,0.0779509400523,0.0779509400523,0.0890867886312,0.10022263721,0.10022263721,0.111358485789,0.122494334368,0.122494334368,0.133630182947,0.144766031526,0.155901880105,0.155901880105,0.167037728684,0.178173577262,0.189309425841,0.189309425841,0.20044527442,0.211581122999,0.222716971578,0.222716971578,0.233852820157,0.244988668736,0.244988668736,0.256124517315,0.267260365894,0.278396214473,0.289532063051,0.289532063051,0.30066791163,0.311803760209,0.322939608788,0.322939608788,0.334075457367,0.345211305946,0.345211305946,0.356347154525,0.367483003104,0.378618851683,0.389754700262,0.400890548841,0.400890548841,0.412026397419,0.423162245998,0.434298094577,0.445433943156,0.445433943156,0.456569791735,0.467705640314,0.478841488893,0.489977337472,0.501113186051,0.51224903463,0.51224903463,0.523384883208,0.534520731787,0.545656580366,0.556792428945,0.567928277524,0.579064126103,0.590199974682,0.590199974682,0.601335823261,0.61247167184,0.623607520419,0.623607520419,0.634743368997,0.645879217576,0.657015066155,0.668150914734,0.679286763313,0.690422611892,0.690422611892,0.701558460471,0.71269430905,0.723830157629,0.734966006208,0.746101854787,0.757237703365,0.768373551944,0.768373551944,0.779509400523,0.790645249102,0.801781097681,0.81291694626,0.824052794839,0.835188643418,0.846324491997,0.857460340576,0.868596189154,0.879732037733,0.890867886312,0.902003734891,0.91313958347,0.924275432049,0.935411280628,0.946547129207,0.957682977786,0.968818826365,0.979954674943,0.991090523522,1.0022263721,1.01336222068,1.02449806926,1.03563391784,1.04676976642,1.057905615,1.06904146357,1.06904146357,1.08017731215,1.09131316073,1.10244900931,1.11358485789,1.12472070647,1.13585655505,1.14699240363,1.16926410078,1.18039994936,1.19153579794,1.20267164652,1.2138074951,1.23607919226,1.24721504084,1.25835088942,1.28062258657,1.29175843515,1.30289428373,1.31403013231,1.32516598089,1.33630182947,1.34743767805,1.35857352663,1.36970937521,1.38084522378,1.39198107236,1.40311692094,1.41425276952,1.4253886181,1.4253886181,1.43652446668,1.44766031526,1.46993201242,1.48106786099,1.50333955815,0.0,0.0,0.0,0.0,0.0,0.0,0.0,0.0,0.0,0.0,0.0,0.0,0.0,0.0,0.0,0.0,0.0,0.0,0.0,0.0,0.0,0.0,0.0,0.0,0.0,0.0,0.0,0.0,0.0,0.0,0.0,0.0,0.0,0.0,0.0,0.0,0.0,0.0,0.0,0.0,0.0,0.0,0.0,0.0,0.0,0.0,0.0,0.0,0.0,0.0,0.0,0.0,0.0,0.0,0.0,0.0,0.0,0.0,0.0,0.0,0.0,0.0,0.0,0.0,0.0,0.0,0.0,0.0,0.0,0.0,0.0,0.0,0.0,0.0,0.0,0.0,0.0,0.0,0.0,0.0,0.0,0.0,0.0,0.0,0.0,0.0,0.0,0.0,0.0,0.0,0.0,0.0,0.0,0.0,0.0,0.0,0.0,0.0,0.0,0.0,0.0,0.0,0.0,0.0,0.0,0.0,0.0,0.0,0.0,0.0,0.0,0.0,0.0,0.0,0.0,0.0,0.0,0.0,0.0,0.0,0.0,0.0,0.0,0.0,0.0,0.0,0.0,0.0
0.0,0.0,0.0,0.0,0.0,0.0,0.0,0.0,0.0,0.0,0.0,0.0,0.0,0.0,0.0,0.0,0.0,0.0,0.0,0.0,0.0,0.0,0.0,0.0,0.0,0.0,0.0,0.0,0.0,0.0,0.0,0.0,0.0,0.0,0.0,0.0,0.0,0.0,0.0,0.0,0.0,0.0,0.0,0.0,-1.19153579794,-1.18039994936,-1.18039994936,-1.16926410078,-1.16926410078,-1.15812825221,-1.15812825221,-1.15812825221,-1.14699240363,-1.14699240363,-1.14699240363,-1.13585655505,-1.13585655505,-1.13585655505,-1.12472070647,-1.12472070647,-1.11358485789,-1.11358485789,-1.10244900931,-1.10244900931,-1.09131316073,-1.09131316073,-1.08017731215,-1.08017731215,-1.06904146357,-1.06904146357,-1.057905615,-1.057905615,-1.04676976642,-1.04676976642,-1.03563391784,-1.03563391784,-1.03563391784,-1.02449806926,-1.02449806926,-1.02449806926,-1.01336222068,-1.01336222068,-1.0022263721,-1.0022263721,-1.0022263721,-0.991090523522,-0.991090523522,-0.979954674943,-0.979954674943,-0.968818826365,-0.968818826365,-0.957682977786,-0.957682977786,-0.946547129207,-0.946547129207,-0.935411280628,-0.935411280628,-0.924275432049,-0.924275432049,-0.91313958347,-0.91313958347,-0.91313958347,-0.902003734891,-0.902003734891,-0.890867886312,-0.890867886312,-0.879732037733,-0.879732037733,-0.879732037733,-0.868596189154,-0.868596189154,-0.857460340576,-0.857460340576,-0.846324491997,-0.846324491997,-0.835188643418,-0.835188643418,-0.824052794839,-0.824052794839,-0.81291694626,-0.81291694626,-0.801781097681,-0.801781097681,-0.790645249102,-0.790645249102,-0.779509400523,-0.779509400523,-0.768373551944,-0.768373551944,-0.757237703365,-0.757237703365,-0.746101854787,-0.746101854787,-0.734966006208,-0.734966006208,-0.723830157629,-0.723830157629,-0.71269430905,-0.71269430905,-0.701558460471,-0.690422611892,-0.690422611892,-0.679286763313,-0.679286763313,-0.668150914734,-0.668150914734,-0.657015066155,-0.657015066155,-0.645879217576,-0.645879217576,-0.634743368997,-0.634743368997,-0.623607520419,-0.623607520419,-0.61247167184,-0.61247167184,-0.601335823261,-0.601335823261,-0.590199974682,-0.590199974682,-0.579064126103,-0.567928277524,-0.567928277524,-0.556792428945,-0.556792428945,-0.545656580366,-0.545656580366,-0.534520731787,-0.523384883208,-0.523384883208,-0.51224903463,-0.51224903463,-0.501113186051,-0.501113186051,-0.489977337472,-0.489977337472,-0.478841488893,-0.467705640314,-0.467705640314,-0.456569791735,-0.456569791735,-0.445433943156,-0.445433943156,-0.434298094577,-0.434298094577,-0.423162245998,-0.412026397419,-0.412026397419,-0.400890548841,-0.400890548841,-0.389754700262,-0.378618851683,-0.378618851683,-0.367483003104,-0.356347154525,-0.356347154525,-0.345211305946,-0.334075457367,-0.334075457367,-0.322939608788,-0.322939608788,-0.311803760209,-0.311803760209,-0.30066791163,-0.30066791163,-0.289532063051,-0.278396214473,-0.278396214473,-0.267260365894,-0.267260365894,-0.256124517315,-0.244988668736,-0.244988668736,-0.233852820157,-0.233852820157,-0.222716971578,-0.211581122999,-0.211581122999,-0.20044527442,-0.20044527442,-0.189309425841,-0.178173577262,-0.167037728684,-0.167037728684,-0.155901880105,-0.144766031526,-0.144766031526,-0.133630182947,-0.122494334368,-0.122494334368,-0.111358485789,-0.111358485789,-0.10022263721,-0.0890867886312,-0.0890867886312,-0.0779509400523,-0.0668150914734,-0.0668150914734,-0.0556792428945,-0.0445433943156,-0.0334075457367,-0.0334075457367,-0.0222716971578,-0.0111358485789,-0.0111358485789,0.0,0.0111358485789,0.0222716971578,0.0222716971578,0.0334075457367,0.0445433943156,0.0445433943156,0.0556792428945,0.0668150914734,0.0668150914734,0.0779509400523,0.0779509400523,0.0890867886312,0.10022263721,0.10022263721,0.111358485789,0.122494334368,0.122494334368,0.133630182947,0.144766031526,0.144766031526,0.155901880105,0.167037728684,0.178173577262,0.189309425841,0.189309425841,0.20044527442,0.211581122999,0.222716971578,0.222716971578,0.233852820157,0.244988668736,0.244988668736,0.256124517315,0.267260365894,0.278396214473,0.289532063051,0.289532063051,0.30066791163,0.311803760209,0.322939608788,0.322939608788,0.334075457367,0.345211305946,0.345211305946,0.356347154525,0.367483003104,0.378618851683,0.389754700262,0.389754700262,0.400890548841,0.412026397419,0.423162245998,0.434298094577,0.445433943156,0.445433943156,0.456569791735,0.467705640314,0.478841488893,0.478841488893,0.489977337472,0.501113186051,0.51224903463,0.523384883208,0.534520731787,0.545656580366,0.556792428945,0.567928277524,0.579064126103,0.579064126103,0.590199974682,0.601335823261,0.61247167184,0.623607520419,0.623607520419,0.634743368997,0.645879217576,0.657015066155,0.668150914734,0.679286763313,0.690422611892,0.690422611892,0.701558460471,0.71269430905,0.723830157629,0.734966006208,0.746101854787,0.746101854787,0.757237703365,0.768373551944,0.779509400523,0.790645249102,0.801781097681,0.81291694626,0.824052794839,0.835188643418,0.846324491997,0.857460340576,0.868596189154,0.879732037733,0.890867886312,0.902003734891,0.91313958347,0.924275432049,0.935411280628,0.946547129207,0.957682977786,0.968818826365,0.979954674943,0.991090523522,0.991090523522,1.0022263721,1.01336222068,1.02449806926,1.03563391784,1.04676976642,1.057905615,1.06904146357,1.08017731215,1.09131316073,1.10244900931,1.11358485789,1.12472070647,1.13585655505,1.14699240363,1.16926410078,1.18039994936,1.19153579794,1.20267164652,1.2138074951,1.23607919226,1.24721504084,1.26948673799,1.28062258657,1.29175843515,1.30289428373,1.31403013231,1.32516598089,1.33630182947,1.34743767805,1.35857352663,1.36970937521,1.38084522378,1.39198107236,1.40311692094,1.41425276952,1.4253886181,1.4253886181,1.43652446668,1.44766031526,1.45879616384,1.46993201242,1.48106786099,0.0,0.0,0.0,0.0,0.0,0.0,0.0,0.0,0.0,0.0,0.0,0.0,0.0,0.0,0.0,0.0,0.0,0.0,0.0,0.0,0.0,0.0,0.0,0.0,0.0,0.0,0.0,0.0,0.0,0.0,0.0,0.0,0.0,0.0,0.0,0.0,0.0,0.0,0.0,0.0,0.0,0.0,0.0,0.0,0.0,0.0,0.0,0.0,0.0,0.0,0.0,0.0,0.0,0.0,0.0,0.0,0.0,0.0,0.0,0.0,0.0,0.0,0.0,0.0,0.0,0.0,0.0,0.0,0.0,0.0,0.0,0.0,0.0,0.0,0.0,0.0,0.0,0.0,0.0,0.0,0.0,0.0,0.0,0.0,0.0,0.0,0.0,0.0,0.0,0.0,0.0,0.0,0.0,0.0,0.0,0.0,0.0,0.0,0.0,0.0,0.0,0.0,0.0,0.0,0.0,0.0,0.0,0.0,0.0,0.0,0.0,0.0,0.0,0.0,0.0,0.0,0.0,0.0,0.0,0.0,0.0,0.0,0.0,0.0,0.0,0.0,0.0,0.0
0.0,0.0,0.0,0.0,0.0,0.0,0.0,0.0,0.0,0.0,0.0,0.0,0.0,0.0,0.0,0.0,0.0,0.0,0.0,0.0,0.0,0.0,0.0,0.0,0.0,0.0,0.0,0.0,0.0,0.0,0.0,0.0,0.0,0.0,0.0,0.0,0.0,0.0,0.0,0.0,0.0,0.0,0.0,0.0,0.0,0.0,0.0,0.0,0.0,0.0,-1.15812825221,-1.14699240363,-1.14699240363,-1.14699240363,-1.14699240363,-1.13585655505,-1.13585655505,-1.12472070647,-1.12472070647,-1.12472070647,-1.11358485789,-1.11358485789,-1.10244900931,-1.09131316073,-1.09131316073,-1.08017731215,-1.08017731215,-1.06904146357,-1.06904146357,-1.057905615,-1.057905615,-1.04676976642,-1.04676976642,-1.04676976642,-1.03563391784,-1.03563391784,-1.03563391784,-1.02449806926,-1.02449806926,-1.01336222068,-1.01336222068,-1.01336222068,-1.0022263721,-1.0022263721,-0.991090523522,-0.991090523522,-0.979954674943,-0.979954674943,-0.979954674943,-0.968818826365,-0.968818826365,-0.957682977786,-0.946547129207,-0.946547129207,-0.935411280628,-0.935411280628,-0.924275432049,-0.924275432049,-0.91313958347,-0.91313958347,-0.91313958347,-0.902003734891,-0.902003734891,-0.902003734891,-0.890867886312,-0.890867886312,-0.879732037733,-0.879732037733,-0.868596189154,-0.868596189154,-0.857460340576,-0.857460340576,-0.846324491997,-0.846324491997,-0.846324491997,-0.835188643418,-0.835188643418,-0.824052794839,-0.824052794839,-0.81291694626,-0.801781097681,-0.801781097681,-0.790645249102,-0.790645249102,-0.779509400523,-0.779509400523,-0.768373551944,-0.768373551944,-0.768373551944,-0.757237703365,-0.757237703365,-0.746101854787,-0.746101854787,-0.734966006208,-0.734966006208,-0.723830157629,-0.71269430905,-0.71269430905,-0.701558460471,-0.701558460471,-0.690422611892,-0.690422611892,-0.679286763313,-0.679286763313,-0.668150914734,-0.668150914734,-0.657015066155,-0.657015066155,-0.645879217576,-0.645879217576,-0.634743368997,-0.634743368997,-0.623607520419,-0.623607520419,-0.61247167184,-0.61247167184,-0.601335823261,-0.590199974682,-0.590199974682,-0.579064126103,-0.579064126103,-0.567928277524,-0.567928277524,-0.556792428945,-0.556792428945,-0.545656580366,-0.545656580366,-0.534520731787,-0.523384883208,-0.523384883208,-0.51224903463,-0.51224903463,-0.501113186051,-0.501113186051,-0.489977337472,-0.478841488893,-0.478841488893,-0.467705640314,-0.467705640314,-0.456569791735,-0.456569791735,-0.445433943156,-0.445433943156,-0.434298094577,-0.434298094577,-0.423162245998,-0.412026397419,-0.412026397419,-0.400890548841,-0.400890548841,-0.389754700262,-0.378618851683,-0.378618851683,-0.367483003104,-0.356347154525,-0.356347154525,-0.345211305946,-0.334075457367,-0.334075457367,-0.322939608788,-0.322939608788,-0.311803760209,-0.311803760209,-0.30066791163,-0.30066791163,-0.289532063051,-0.278396214473,-0.278396214473,-0.267260365894,-0.267260365894,-0.256124517315,-0.244988668736,-0.244988668736,-0.233852820157,-0.233852820157,-0.222716971578,-0.211581122999,-0.211581122999,-0.20044527442,-0.20044527442,-0.189309425841,-0.178173577262,-0.178173577262,-0.167037728684,-0.155901880105,-0.144766031526,-0.144766031526,-0.133630182947,-0.122494334368,-0.122494334368,-0.111358485789,-0.111358485789,-0.10022263721,-0.0890867886312,-0.0890867886312,-0.0779509400523,-0.0668150914734,-0.0668150914734,-0.0556792428945,-0.0445433943156,-0.0445433943156,-0.0334075457367,-0.0222716971578,-0.0111358485789,-0.0111358485789,0.0,0.0111358485789,0.0222716971578,0.0222716971578,0.0334075457367,0.0445433943156,0.0445433943156,0.0556792428945,0.0556792428945,0.0668150914734,0.0779509400523,0.0779509400523,0.0890867886312,0.10022263721,0.10022263721,0.111358485789,0.122494334368,0.122494334368,0.133630182947,0.144766031526,0.144766031526,0.155901880105,0.167037728684,0.178173577262,0.178173577262,0.189309425841,0.20044527442,0.211581122999,0.211581122999,0.222716971578,0.233852820157,0.244988668736,0.244988668736,0.256124517315,0.267260365894,0.278396214473,0.289532063051,0.289532063051,0.30066791163,0.311803760209,0.311803760209,0.322939608788,0.334075457367,0.345211305946,0.345211305946,0.356347154525,0.367483003104,0.378618851683,0.389754700262,0.400890548841,0.400890548841,0.412026397419,0.423162245998,0.434298094577,0.445433943156,0.445433943156,0.456569791735,0.467705640314,0.478841488893,0.478841488893,0.489977337472,0.501113186051,0.51224903463,0.523384883208,0.534520731787,0.545656580366,0.556792428945,0.567928277524,0.579064126103,0.579064126103,0.590199974682,0.601335823261,0.61247167184,0.623607520419,0.623607520419,0.634743368997,0.645879217576,0.657015066155,0.668150914734,0.679286763313,0.679286763313,0.690422611892,0.701558460471,0.71269430905,0.723830157629,0.734966006208,0.734966006208,0.746101854787,0.757237703365,0.768373551944,0.779509400523,0.790645249102,0.801781097681,0.81291694626,0.824052794839,0.835188643418,0.846324491997,0.857460340576,0.868596189154,0.879732037733,0.890867886312,0.902003734891,0.91313958347,0.924275432049,0.935411280628,0.946547129207,0.957682977786,0.968818826365,0.968818826365,0.979954674943,0.991090523522,1.0022263721,1.01336222068,1.02449806926,1.03563391784,1.04676976642,1.057905615,1.06904146357,1.08017731215,1.09131316073,1.10244900931,1.11358485789,1.12472070647,1.13585655505,1.14699240363,1.16926410078,1.18039994936,1.19153579794,1.20267164652,1.2138074951,1.23607919226,1.24721504084,1.25835088942,1.28062258657,1.29175843515,1.30289428373,1.31403013231,1.32516598089,1.33630182947,1.34743767805,1.35857352663,1.36970937521,1.38084522378,1.39198107236,1.40311692094,1.41425276952,1.41425276952,1.4253886181,1.43652446668,1.44766031526,1.45879616384,1.46993201242,1.48106786099,0.0,0.0,0.0,0.0,0.0,0.0,0.0,0.0,0.0,0.0,0.0,0.0,0.0,0.0,0.0,0.0,0.0,0.0,0.0,0.0,0.0,0.0,0.0,0.0,0.0,0.0,0.0,0.0,0.0,0.0,0.0,0.0,0.0,0.0,0.0,0.0,0.0,0.0,0.0,0.0,0.0,0.0,0.0,0.0,0.0,0.0,0.0,0.0,0.0,0.0,0.0,0.0,0.0,0.0,0.0,0.0,0.0,0.0,0.0,0.0,0.0,0.0,0.0,0.0,0.0,0.0,0.0,0.0,0.0,0.0,0.0,0.0,0.0,0.0,0.0,0.0,0.0,0.0,0.0,0.0,0.0,0.0,0.0,0.0,0.0,0.0,0.0,0.0,0.0,0.0,0.0,0.0,0.0,0.0,0.0,0.0,0.0,0.0,0.0,0.0,0.0,0.0,0.0,0.0,0.0,0.0,0.0,0.0,0.0,0.0,0.0,0.0,0.0,0.0,0.0,0.0,0.0,0.0,0.0,0.0,0.0,0.0,0.0,0.0,0.0,0.0,0.0,0.0
0.0,0.0,0.0,0.0,0.0,0.0,0.0,0.0,0.0,0.0,0.0,0.0,0.0,0.0,0.0,0.0,0.0,0.0,0.0,0.0,0.0,0.0,0.0,0.0,0.0,0.0,0.0,0.0,0.0,0.0,0.0,0.0,0.0,0.0,0.0,0.0,0.0,0.0,0.0,0.0,0.0,0.0,0.0,0.0,0.0,0.0,0.0,0.0,0.0,0.0,0.0,0.0,0.0,0.0,0.0,0.0,-1.13585655505,-1.12472070647,-1.12472070647,-1.11358485789,-1.11358485789,-1.10244900931,-1.10244900931,-1.09131316073,-1.09131316073,-1.08017731215,-1.08017731215,-1.06904146357,-1.057905615,-1.057905615,-1.057905615,-1.04676976642,-1.04676976642,-1.03563391784,-1.03563391784,-1.03563391784,-1.02449806926,-1.02449806926,-1.02449806926,-1.01336222068,-1.01336222068,-1.0022263721,-1.0022263721,-0.991090523522,-0.991090523522,-0.979954674943,-0.979954674943,-0.979954674943,-0.968818826365,-0.968818826365,-0.957682977786,-0.957682977786,-0.946547129207,-0.935411280628,-0.935411280628,-0.924275432049,-0.924275432049,-0.924275432049,-0.91313958347,-0.91313958347,-0.91313958347,-0.902003734891,-0.902003734891,-0.902003734891,-0.890867886312,-0.890867886312,-0.879732037733,-0.879732037733,-0.868596189154,-0.868596189154,-0.857460340576,-0.857460340576,-0.846324491997,-0.846324491997,-0.835188643418,-0.835188643418,-0.824052794839,-0.824052794839,-0.81291694626,-0.81291694626,-0.801781097681,-0.801781097681,-0.790645249102,-0.790645249102,-0.779509400523,-0.779509400523,-0.768373551944,-0.768373551944,-0.757237703365,-0.757237703365,-0.746101854787,-0.746101854787,-0.734966006208,-0.734966006208,-0.723830157629,-0.723830157629,-0.71269430905,-0.71269430905,-0.701558460471,-0.701558460471,-0.690422611892,-0.690422611892,-0.679286763313,-0.679286763313,-0.668150914734,-0.668150914734,-0.657015066155,-0.657015066155,-0.645879217576,-0.645879217576,-0.634743368997,-0.634743368997,-0.623607520419,-0.623607520419,-0.61247167184,-0.601335823261,-0.601335823261,-0.590199974682,-0.590199974682,-0.579064126103,-0.579064126103,-0.567928277524,-0.567928277524,-0.556792428945,-0.556792428945,-0.545656580366,-0.534520731787,-0.534520731787,-0.523384883208,-0.523384883208,-0.51224903463,-0.51224903463,-0.501113186051,-0.489977337472,-0.489977337472,-0.478841488893,-0.478841488893,-0.467705640314,-0.467705640314,-0.456569791735,-0.456569791735,-0.445433943156,-0.445433943156,-0.434298094577,-0.434298094577,-0.423162245998,-0.412026397419,-0.412026397419,-0.400890548841,-0.400890548841,-0.389754700262,-0.378618851683,-0.378618851683,-0.367483003104,-0.356347154525,-0.356347154525,-0.345211305946,-0.334075457367,-0.334075457367,-0.322939608788,-0.322939608788,-0.311803760209,-0.311803760209,-0.30066791163,-0.30066791163,-0.289532063051,-0.278396214473,-0.278396214473,-0.267260365894,-0.267260365894,-0.256124517315,-0.244988668736,-0.244988668736,-0.233852820157,-0.233852820157,-0.222716971578,-0.211581122999,-0.211581122999,-0.20044527442,-0.20044527442,-0.189309425841,-0.178173577262,-0.178173577262,-0.167037728684,-0.155901880105,-0.144766031526,-0.144766031526,-0.133630182947,-0.122494334368,-0.122494334368,-0.111358485789,-0.111358485789,-0.10022263721,-0.0890867886312,-0.0890867886312,-0.0779509400523,-0.0668150914734,-0.0668150914734,-0.0556792428945,-0.0445433943156,-0.0445433943156,-0.0334075457367,-0.0222716971578,-0.0111358485789,-0.0111358485789,0.0,0.0111358485789,0.0111358485789,0.0222716971578,0.0334075457367,0.0445433943156,0.0445433943156,0.0556792428945,0.0556792428945,0.0668150914734,0.0779509400523,0.0779509400523,0.0890867886312,0.0890867886312,0.10022263721,0.111358485789,0.111358485789,0.122494334368,0.133630182947,0.144766031526,0.144766031526,0.155901880105,0.167037728684,0.178173577262,0.178173577262,0.189309425841,0.20044527442,0.211581122999,0.211581122999,0.222716971578,0.233852820157,0.244988668736,0.244988668736,0.256124517315,0.267260365894,0.278396214473,0.289532063051,0.289532063051,0.30066791163,0.311803760209,0.311803760209,0.322939608788,0.334075457367,0.345211305946,0.345211305946,0.356347154525,0.367483003104,0.378618851683,0.389754700262,0.400890548841,0.400890548841,0.412026397419,0.423162245998,0.434298094577,0.434298094577,0.445433943156,0.456569791735,0.467705640314,0.467705640314,0.478841488893,0.489977337472,0.501113186051,0.51224903463,0.523384883208,0.534520731787,0.545656580366,0.556792428945,0.567928277524,0.579064126103,0.579064126103,0.590199974682,0.601335823261,0.61247167184,0.623607520419,0.623607520419,0.634743368997,0.645879217576,0.657015066155,0.668150914734,0.679286763313,0.679286763313,0.690422611892,0.701558460471,0.71269430905,0.723830157629,0.723830157629,0.734966006208,0.746101854787,0.757237703365,0.768373551944,0.779509400523,0.790645249102,0.801781097681,0.81291694626,0.824052794839,0.835188643418,0.846324491997,0.857460340576,0.868596189154,0.879732037733,0.890867886312,0.902003734891,0.91313958347,0.924275432049,0.935411280628,0.946547129207,0.946547129207,0.957682977786,0.968818826365,0.979954674943,0.991090523522,1.0022263721,1.01336222068,1.02449806926,1.03563391784,1.04676976642,1.057905615,1.06904146357,1.08017731215,1.09131316073,1.10244900931,1.11358485789,1.12472070647,1.13585655505,1.14699240363,1.16926410078,1.18039994936,1.19153579794,1.20267164652,1.2138074951,1.22494334368,1.24721504084,1.25835088942,1.28062258657,1.29175843515,1.30289428373,1.31403013231,1.32516598089,1.33630182947,1.34743767805,1.35857352663,1.36970937521,1.38084522378,1.39198107236,1.40311692094,1.41425276952,1.41425276952,1.4253886181,1.43652446668,1.44766031526,1.45879616384,1.45879616384,1.48106786099,0.0,0.0,0.0,0.0,0.0,0.0,0.0,0.0,0.0,0.0,0.0,0.0,0.0,0.0,0.0,0.0,0.0,0.0,0.0,0.0,0.0,0.0,0.0,0.0,0.0,0.0,0.0,0.0,0.0,0.0,0.0,0.0,0.0,0.0,0.0,0.0,0.0,0.0,0.0,0.0,0.0,0.0,0.0,0.0,0.0,0.0,0.0,0.0,0.0,0.0,0.0,0.0,0.0,0.0,0.0,0.0,0.0,0.0,0.0,0.0,0.0,0.0,0.0,0.0,0.0,0.0,0.0,0.0,0.0,0.0,0.0,0.0,0.0,0.0,0.0,0.0,0.0,0.0,0.0,0.0,0.0,0.0,0.0,0.0,0.0,0.0,0.0,0.0,0.0,0.0,0.0,0.0,0.0,0.0,0.0,0.0,0.0,0.0,0.0,0.0,0.0,0.0,0.0,0.0,0.0,0.0,0.0,0.0,0.0,0.0,0.0,0.0,0.0,0.0,0.0,0.0,0.0,0.0,0.0,0.0,0.0,0.0,0.0,0.0,0.0,0.0,0.0,0.0
0.0,0.0,0.0,0.0,0.0,0.0,0.0,0.0,0.0,0.0,0.0,0.0,0.0,0.0,0.0,0.0,0.0,0.0,0.0,0.0,0.0,0.0,0.0,0.0,0.0,0.0,0.0,0.0,0.0,0.0,0.0,0.0,0.0,0.0,0.0,0.0,0.0,0.0,0.0,0.0,0.0,0.0,0.0,0.0,0.0,0.0,0.0,0.0,0.0,0.0,0.0,0.0,0.0,0.0,0.0,0.0,0.0,0.0,0.0,0.0,0.0,0.0,0.0,0.0,0.0,-1.08017731215,-1.06904146357,-1.06904146357,-1.057905615,-1.057905615,-1.04676976642,-1.04676976642,-1.04676976642,-1.03563391784,-1.03563391784,-1.03563391784,-1.02449806926,-1.02449806926,-1.02449806926,-1.01336222068,-1.01336222068,-1.0022263721,-1.0022263721,-0.991090523522,-0.991090523522,-0.979954674943,-0.979954674943,-0.979954674943,-0.968818826365,-0.968818826365,-0.957682977786,-0.946547129207,-0.946547129207,-0.935411280628,-0.935411280628,-0.924275432049,-0.924275432049,-0.91313958347,-0.91313958347,-0.91313958347,-0.902003734891,-0.902003734891,-0.902003734891,-0.890867886312,-0.890867886312,-0.879732037733,-0.879732037733,-0.868596189154,-0.868596189154,-0.857460340576,-0.857460340576,-0.857460340576,-0.846324491997,-0.846324491997,-0.835188643418,-0.835188643418,-0.824052794839,-0.824052794839,-0.81291694626,-0.801781097681,-0.801781097681,-0.790645249102,-0.790645249102,-0.779509400523,-0.779509400523,-0.768373551944,-0.768373551944,-0.768373551944,-0.757237703365,-0.757237703365,-0.746101854787,-0.746101854787,-0.734966006208,-0.734966006208,-0.723830157629,-0.723830157629,-0.71269430905,-0.71269430905,-0.701558460471,-0.701558460471,-0.690422611892,-0.679286763313,-0.679286763313,-0.668150914734,-0.668150914734,-0.657015066155,-0.657015066155,-0.645879217576,-0.645879217576,-0.645879217576,-0.634743368997,-0.634743368997,-0.623607520419,-0.61247167184,-0.61247167184,-0.601335823261,-0.601335823261,-0.590199974682,-0.590199974682,-0.579064126103,-0.579064126103,-0.567928277524,-0.556792428945,-0.556792428945,-0.545656580366,-0.545656580366,-0.534520731787,-0.534520731787,-0.523384883208,-0.523384883208,-0.51224903463,-0.501113186051,-0.501113186051,-0.489977337472,-0.489977337472,-0.478841488893,-0.478841488893,-0.467705640314,-0.467705640314,-0.456569791735,-0.456569791735,-0.445433943156,-0.445433943156,-0.434298094577,-0.434298094577,-0.423162245998,-0.412026397419,-0.412026397419,-0.400890548841,-0.389754700262,-0.389754700262,-0.378618851683,-0.378618851683,-0.367483003104,-0.356347154525,-0.356347154525,-0.345211305946,-0.334075457367,-0.334075457367,-0.322939608788,-0.322939608788,-0.311803760209,-0.311803760209,-0.30066791163,-0.30066791163,-0.289532063051,-0.278396214473,-0.278396214473,-0.267260365894,-0.267260365894,-0.256124517315,-0.244988668736,-0.244988668736,-0.233852820157,-0.233852820157,-0.222716971578,-0.211581122999,-0.211581122999,-0.20044527442,-0.20044527442,-0.189309425841,-0.178173577262,-0.167037728684,-0.167037728684,-0.155901880105,-0.144766031526,-0.144766031526,-0.133630182947,-0.122494334368,-0.122494334368,-0.111358485789,-0.10022263721,-0.10022263721,-0.0890867886312,-0.0890867886312,-0.0779509400523,-0.0668150914734,-0.0668150914734,-0.0556792428945,-0.0445433943156,-0.0445433943156,-0.0334075457367,-0.0222716971578,-0.0111358485789,-0.0111358485789,0.0,0.0111358485789,0.0111358485789,0.0222716971578,0.0334075457367,0.0334075457367,0.0445433943156,0.0556792428945,0.0556792428945,0.0668150914734,0.0668150914734,0.0779509400523,0.0890867886312,0.0890867886312,0.10022263721,0.111358485789,0.111358485789,0.122494334368,0.133630182947,0.144766031526,0.144766031526,0.155901880105,0.167037728684,0.178173577262,0.178173577262,0.189309425841,0.20044527442,0.211581122999,0.211581122999,0.222716971578,0.233852820157,0.244988668736,0.244988668736,0.256124517315,0.267260365894,0.278396214473,0.278396214473,0.289532063051,0.30066791163,0.311803760209,0.311803760209,0.322939608788,0.334075457367,0.345211305946,0.356347154525,0.356347154525,0.367483003104,0.378618851683,0.389754700262,0.389754700262,0.400890548841,0.412026397419,0.423162245998,0.434298094577,0.434298094577,0.445433943156,0.456569791735,0.467705640314,0.467705640314,0.478841488893,0.489977337472,0.501113186051,0.51224903463,0.523384883208,0.534520731787,0.545656580366,0.556792428945,0.567928277524,0.579064126103,0.579064126103,0.590199974682,0.601335823261,0.61247167184,0.623607520419,0.634743368997,0.634743368997,0.645879217576,0.657015066155,0.668150914734,0.679286763313,0.679286763313,0.690422611892,0.701558460471,0.71269430905,0.71269430905,0.723830157629,0.734966006208,0.746101854787,0.757237703365,0.768373551944,0.779509400523,0.790645249102,0.801781097681,0.81291694626,0.824052794839,0.835188643418,0.846324491997,0.857460340576,0.868596189154,0.879732037733,0.890867886312,0.902003734891,0.91313958347,0.924275432049,0.935411280628,0.935411280628,0.946547129207,0.957682977786,0.968818826365,0.979954674943,0.991090523522,1.0022263721,1.01336222068,1.02449806926,1.03563391784,1.04676976642,1.057905615,1.06904146357,1.08017731215,1.09131316073,1.10244900931,1.11358485789,1.12472070647,1.13585655505,1.14699240363,1.16926410078,1.18039994936,1.19153579794,1.20267164652,1.2138074951,1.22494334368,1.24721504084,1.25835088942,1.26948673799,1.29175843515,1.30289428373,1.31403013231,1.32516598089,1.33630182947,1.34743767805,1.35857352663,1.36970937521,1.38084522378,1.39198107236,1.40311692094,1.41425276952,1.41425276952,1.4253886181,1.43652446668,1.44766031526,1.45879616384,1.46993201242,1.49220370957,0.0,0.0,0.0,0.0,0.0,0.0,0.0,0.0,0.0,0.0,0.0,0.0,0.0,0.0,0.0,0.0,0.0,0.0,0.0,0.0,0.0,0.0,0.0,0.0,0.0,0.0,0.0,0.0,0.0,0.0,0.0,0.0,0.0,0.0,0.0,0.0,0.0,0.0,0.0,0.0,0.0,0.0,0.0,0.0,0.0,0.0,0.0,0.0,0.0,0.0,0.0,0.0,0.0,0.0,0.0,0.0,0.0,0.0,0.0,0.0,0.0,0.0,0.0,0.0,0.0,0.0,0.0,0.0,0.0,0.0,0.0,0.0,0.0,0.0,0.0,0.0,0.0,0.0,0.0,0.0,0.0,0.0,0.0,0.0,0.0,0.0,0.0,0.0,0.0,0.0,0.0,0.0,0.0,0.0,0.0,0.0,0.0,0.0,0.0,0.0,0.0,0.0,0.0,0.0,0.0,0.0,0.0,0.0,0.0,0.0,0.0,0.0,0.0,0.0,0.0,0.0,0.0,0.0,0.0,0.0,0.0,0.0,0.0,0.0,0.0,0.0,0.0,0.0
0.0,0.0,0.0,0.0,0.0,0.0,0.0,0.0,0.0,0.0,0.0,0.0,0.0,0.0,0.0,0.0,0.0,0.0,0.0,0.0,0.0,0.0,0.0,0.0,0.0,0.0,0.0,0.0,0.0,0.0,0.0,0.0,0.0,0.0,0.0,0.0,0.0,0.0,0.0,0.0,0.0,0.0,0.0,0.0,0.0,0.0,0.0,0.0,0.0,0.0,0.0,0.0,0.0,0.0,0.0,0.0,0.0,0.0,0.0,0.0,0.0,0.0,0.0,0.0,0.0,0.0,0.0,0.0,-1.057905615,-1.057905615,-1.04676976642,-1.04676976642,-1.03563391784,-1.03563391784,-1.03563391784,-1.02449806926,-1.02449806926,-1.02449806926,-1.02449806926,-1.01336222068,-1.01336222068,-1.0022263721,-0.991090523522,-0.991090523522,-0.979954674943,-0.979954674943,-0.979954674943,-0.968818826365,-0.968818826365,-0.957682977786,-0.957682977786,-0.946547129207,-0.935411280628,-0.935411280628,-0.924275432049,-0.924275432049,-0.924275432049,-0.91313958347,-0.91313958347,-0.91313958347,-0.902003734891,-0.902003734891,-0.902003734891,-0.890867886312,-0.890867886312,-0.879732037733,-0.879732037733,-0.868596189154,-0.868596189154,-0.857460340576,-0.857460340576,-0.846324491997,-0.846324491997,-0.835188643418,-0.835188643418,-0.824052794839,-0.824052794839,-0.81291694626,-0.81291694626,-0.801781097681,-0.801781097681,-0.790645249102,-0.790645249102,-0.779509400523,-0.779509400523,-0.768373551944,-0.768373551944,-0.757237703365,-0.757237703365,-0.746101854787,-0.746101854787,-0.734966006208,-0.734966006208,-0.723830157629,-0.723830157629,-0.71269430905,-0.71269430905,-0.701558460471,-0.701558460471,-0.690422611892,-0.690422611892,-0.679286763313,-0.679286763313,-0.668150914734,-0.668150914734,-0.657015066155,-0.657015066155,-0.645879217576,-0.645879217576,-0.634743368997,-0.634743368997,-0.623607520419,-0.623607520419,-0.61247167184,-0.61247167184,-0.601335823261,-0.601335823261,-0.590199974682,-0.579064126103,-0.579064126103,-0.567928277524,-0.567928277524,-0.556792428945,-0.556792428945,-0.545656580366,-0.545656580366,-0.534520731787,-0.534520731787,-0.523384883208,-0.51224903463,-0.51224903463,-0.501113186051,-0.501113186051,-0.489977337472,-0.489977337472,-0.478841488893,-0.478841488893,-0.467705640314,-0.467705640314,-0.456569791735,-0.456569791735,-0.445433943156,-0.445433943156,-0.434298094577,-0.434298094577,-0.423162245998,-0.412026397419,-0.412026397419,-0.400890548841,-0.389754700262,-0.389754700262,-0.378618851683,-0.378618851683,-0.367483003104,-0.356347154525,-0.356347154525,-0.345211305946,-0.334075457367,-0.334075457367,-0.322939608788,-0.322939608788,-0.311803760209,-0.311803760209,-0.30066791163,-0.289532063051,-0.289532063051,-0.278396214473,-0.278396214473,-0.267260365894,-0.267260365894,-0.256124517315,-0.244988668736,-0.244988668736,-0.233852820157,-0.233852820157,-0.222716971578,-0.211581122999,-0.211581122999,-0.20044527442,-0.20044527442,-0.189309425841,-0.178173577262,-0.167037728684,-0.167037728684,-0.155901880105,-0.144766031526,-0.133630182947,-0.133630182947,-0.122494334368,-0.122494334368,-0.111358485789,-0.10022263721,-0.10022263721,-0.0890867886312,-0.0890867886312,-0.0779509400523,-0.0668150914734,-0.0668150914734,-0.0556792428945,-0.0445433943156,-0.0445433943156,-0.0334075457367,-0.0222716971578,-0.0111358485789,-0.0111358485789,0.0,0.0111358485789,0.0111358485789,0.0222716971578,0.0334075457367,0.0334075457367,0.0445433943156,0.0556792428945,0.0556792428945,0.0668150914734,0.0668150914734,0.0779509400523,0.0890867886312,0.0890867886312,0.10022263721,0.111358485789,0.111358485789,0.122494334368,0.133630182947,0.144766031526,0.144766031526,0.155901880105,0.167037728684,0.167037728684,0.178173577262,0.189309425841,0.20044527442,0.20044527442,0.211581122999,0.222716971578,0.233852820157,0.244988668736,0.244988668736,0.256124517315,0.267260365894,0.278396214473,0.278396214473,0.289532063051,0.30066791163,0.311803760209,0.311803760209,0.322939608788,0.334075457367,0.345211305946,0.356347154525,0.356347154525,0.367483003104,0.378618851683,0.389754700262,0.389754700262,0.400890548841,0.412026397419,0.423162245998,0.434298094577,0.434298094577,0.445433943156,0.456569791735,0.467705640314,0.467705640314,0.478841488893,0.489977337472,0.501113186051,0.51224903463,0.523384883208,0.534520731787,0.545656580366,0.556792428945,0.567928277524,0.579064126103,0.579064126103,0.590199974682,0.601335823261,0.61247167184,0.623607520419,0.634743368997,0.634743368997,0.645879217576,0.657015066155,0.668150914734,0.668150914734,0.679286763313,0.690422611892,0.701558460471,0.71269430905,0.71269430905,0.723830157629,0.734966006208,0.746101854787,0.757237703365,0.768373551944,0.779509400523,0.790645249102,0.801781097681,0.81291694626,0.824052794839,0.835188643418,0.846324491997,0.857460340576,0.868596189154,0.879732037733,0.890867886312,0.902003734891,0.91313958347,0.924275432049,0.935411280628,0.946547129207,0.946547129207,0.957682977786,0.968818826365,0.979954674943,0.991090523522,1.0022263721,1.01336222068,1.02449806926,1.03563391784,1.04676976642,1.057905615,1.06904146357,1.08017731215,1.09131316073,1.10244900931,1.11358485789,1.12472070647,1.13585655505,1.14699240363,1.15812825221,1.16926410078,1.18039994936,1.20267164652,1.2138074951,1.22494334368,1.23607919226,1.25835088942,1.26948673799,1.29175843515,1.30289428373,1.31403013231,1.32516598089,1.33630182947,1.34743767805,1.35857352663,1.36970937521,1.38084522378,1.39198107236,1.40311692094,1.41425276952,1.41425276952,1.4253886181,1.43652446668,1.43652446668,1.45879616384,1.46993201242,1.49220370957,0.0,0.0,0.0,0.0,0.0,0.0,0.0,0.0,0.0,0.0,0.0,0.0,0.0,0.0,0.0,0.0,0.0,0.0,0.0,0.0,0.0,0.0,0.0,0.0,0.0,0.0,0.0,0.0,0.0,0.0,0.0,0.0,0.0,0.0,0.0,0.0,0.0,0.0,0.0,0.0,0.0,0.0,0.0,0.0,0.0,0.0,0.0,0.0,0.0,0.0,0.0,0.0,0.0,0.0,0.0,0.0,0.0,0.0,0.0,0.0,0.0,0.0,0.0,0.0,0.0,0.0,0.0,0.0,0.0,0.0,0.0,0.0,0.0,0.0,0.0,0.0,0.0,0.0,0.0,0.0,0.0,0.0,0.0,0.0,0.0,0.0,0.0,0.0,0.0,0.0,0.0,0.0,0.0,0.0,0.0,0.0,0.0,0.0,0.0,0.0,0.0,0.0,0.0,0.0,0.0,0.0,0.0,0.0,0.0,0.0,0.0,0.0,0.0,0.0,0.0,0.0,0.0,0.0,0.0,0.0,0.0,0.0,0.0,0.0,0.0,0.0,0.0,0.0
0.0,0.0,0.0,0.0,0.0,0.0,0.0,0.0,0.0,0.0,0.0,0.0,0.0,0.0,0.0,0.0,0.0,0.0,0.0,0.0,0.0,0.0,0.0,0.0,0.0,0.0,0.0,0.0,0.0,0.0,0.0,0.0,0.0,0.0,0.0,0.0,0.0,0.0,0.0,0.0,0.0,0.0,0.0,0.0,0.0,0.0,0.0,0.0,0.0,0.0,0.0,0.0,0.0,0.0,0.0,0.0,0.0,0.0,0.0,0.0,0.0,0.0,0.0,0.0,0.0,0.0,0.0,0.0,0.0,0.0,0.0,0.0,0.0,0.0,0.0,0.0,-1.02449806926,-1.02449806926,-1.01336222068,-1.01336222068,-1.0022263721,-1.0022263721,-0.991090523522,-0.991090523522,-0.979954674943,-0.979954674943,-0.979954674943,-0.968818826365,-0.968818826365,-0.957682977786,-0.946547129207,-0.946547129207,-0.935411280628,-0.935411280628,-0.924275432049,-0.924275432049,-0.91313958347,-0.91313958347,-0.91313958347,-0.91313958347,-0.902003734891,-0.902003734891,-0.902003734891,-0.890867886312,-0.890867886312,-0.879732037733,-0.879732037733,-0.868596189154,-0.868596189154,-0.857460340576,-0.857460340576,-0.846324491997,-0.846324491997,-0.835188643418,-0.835188643418,-0.824052794839,-0.824052794839,-0.81291694626,-0.801781097681,-0.801781097681,-0.790645249102,-0.790645249102,-0.779509400523,-0.779509400523,-0.768373551944,-0.768373551944,-0.757237703365,-0.757237703365,-0.746101854787,-0.746101854787,-0.734966006208,-0.734966006208,-0.734966006208,-0.723830157629,-0.723830157629,-0.71269430905,-0.71269430905,-0.701558460471,-0.701558460471,-0.690422611892,-0.690422611892,-0.679286763313,-0.679286763313,-0.668150914734,-0.668150914734,-0.657015066155,-0.657015066155,-0.645879217576,-0.645879217576,-0.634743368997,-0.634743368997,-0.623607520419,-0.623607520419,-0.61247167184,-0.601335823261,-0.601335823261,-0.590199974682,-0.590199974682,-0.579064126103,-0.579064126103,-0.567928277524,-0.567928277524,-0.556792428945,-0.556792428945,-0.545656580366,-0.545656580366,-0.534520731787,-0.523384883208,-0.523384883208,-0.51224903463,-0.51224903463,-0.501113186051,-0.501113186051,-0.489977337472,-0.489977337472,-0.478841488893,-0.478841488893,-0.467705640314,-0.467705640314,-0.456569791735,-0.456569791735,-0.445433943156,-0.445433943156,-0.434298094577,-0.423162245998,-0.423162245998,-0.412026397419,-0.412026397419,-0.400890548841,-0.389754700262,-0.389754700262,-0.378618851683,-0.367483003104,-0.367483003104,-0.356347154525,-0.345211305946,-0.345211305946,-0.334075457367,-0.334075457367,-0.322939608788,-0.322939608788,-0.311803760209,-0.311803760209,-0.30066791163,-0.289532063051,-0.289532063051,-0.278396214473,-0.278396214473,-0.267260365894,-0.256124517315,-0.256124517315,-0.244988668736,-0.244988668736,-0.233852820157,-0.222716971578,-0.222716971578,-0.211581122999,-0.211581122999,-0.20044527442,-0.189309425841,-0.189309425841,-0.178173577262,-0.167037728684,-0.167037728684,-0.155901880105,-0.144766031526,-0.133630182947,-0.133630182947,-0.122494334368,-0.122494334368,-0.111358485789,-0.10022263721,-0.10022263721,-0.0890867886312,-0.0779509400523,-0.0779509400523,-0.0668150914734,-0.0668150914734,-0.0556792428945,-0.0445433943156,-0.0445433943156,-0.0334075457367,-0.0222716971578,-0.0222716971578,-0.0111358485789,0.0,0.0,0.0111358485789,0.0222716971578,0.0222716971578,0.0334075457367,0.0445433943156,0.0445433943156,0.0556792428945,0.0668150914734,0.0668150914734,0.0779509400523,0.0890867886312,0.0890867886312,0.10022263721,0.111358485789,0.122494334368,0.122494334368,0.133630182947,0.144766031526,0.144766031526,0.155901880105,0.167037728684,0.167037728684,0.178173577262,0.189309425841,0.20044527442,0.20044527442,0.211581122999,0.222716971578,0.233852820157,0.244988668736,0.244988668736,0.256124517315,0.267260365894,0.278396214473,0.278396214473,0.289532063051,0.30066791163,0.311803760209,0.311803760209,0.322939608788,0.334075457367,0.345211305946,0.356347154525,0.356347154525,0.367483003104,0.378618851683,0.378618851683,0.389754700262,0.400890548841,0.412026397419,0.423162245998,0.434298094577,0.434298094577,0.445433943156,0.456569791735,0.467705640314,0.467705640314,0.478841488893,0.489977337472,0.501113186051,0.51224903463,0.523384883208,0.534520731787,0.545656580366,0.556792428945,0.567928277524,0.579064126103,0.579064126103,0.590199974682,0.601335823261,0.61247167184,0.623607520419,0.634743368997,0.634743368997,0.645879217576,0.657015066155,0.668150914734,0.668150914734,0.679286763313,0.690422611892,0.701558460471,0.71269430905,0.71269430905,0.723830157629,0.734966006208,0.746101854787,0.757237703365,0.768373551944,0.779509400523,0.790645249102,0.801781097681,0.81291694626,0.824052794839,0.835188643418,0.846324491997,0.857460340576,0.868596189154,0.879732037733,0.890867886312,0.902003734891,0.91313958347,0.924275432049,0.935411280628,0.946547129207,0.946547129207,0.957682977786,0.968818826365,0.979954674943,0.991090523522,1.0022263721,1.01336222068,1.02449806926,1.03563391784,1.04676976642,1.057905615,1.06904146357,1.08017731215,1.09131316073,1.10244900931,1.11358485789,1.12472070647,1.13585655505,1.14699240363,1.15812825221,1.16926410078,1.18039994936,1.19153579794,1.20267164652,1.2138074951,1.23607919226,1.24721504084,1.26948673799,1.28062258657,1.30289428373,1.31403013231,1.32516598089,1.33630182947,1.33630182947,1.35857352663,1.36970937521,1.38084522378,1.39198107236,1.39198107236,1.40311692094,1.41425276952,1.4253886181,1.43652446668,1.43652446668,1.45879616384,1.45879616384,1.46993201242,0.0,0.0,0.0,0.0,0.0,0.0,0.0,0.0,0.0,0.0,0.0,0.0,0.0,0.0,0.0,0.0,0.0,0.0,0.0,0.0,0.0,0.0,0.0,0.0,0.0,0.0,0.0,0.0,0.0,0.0,0.0,0.0,0.0,0.0,0.0,0.0,0.0,0.0,0.0,0.0,0.0,0.0,0.0,0.0,0.0,0.0,0.0,0.0,0.0,0.0,0.0,0.0,0.0,0.0,0.0,0.0,0.0,0.0,0.0,0.0,0.0,0.0,0.0,0.0,0.0,0.0,0.0,0.0,0.0,0.0,0.0,0.0,0.0,0.0,0.0,0.0,0.0,0.0,0.0,0.0,0.0,0.0,0.0,0.0,0.0,0.0,0.0,0.0,0.0,0.0,0.0,0.0,0.0,0.0,0.0,0.0,0.0,0.0,0.0,0.0,0.0,0.0,0.0,0.0,0.0,0.0,0.0,0.0,0.0,0.0,0.0,0.0,0.0,0.0,0.0,0.0,0.0,0.0,0.0,0.0,0.0,0.0,0.0,0.0,0.0,0.0,0.0,0.0
0.0,0.0,0.0,0.0,0.0,0.0,0.0,0.0,0.0,0.0,0.0,0.0,0.0,0.0,0.0,0.0,0.0,0.0,0.0,0.0,0.0,0.0,0.0,0.0,0.0,0.0,0.0,0.0,0.0,0.0,0.0,0.0,0.0,0.0,0.0,0.0,0.0,0.0,0.0,0.0,0.0,0.0,0.0,0.0,0.0,0.0,0.0,0.0,0.0,0.0,0.0,0.0,0.0,0.0,0.0,0.0,0.0,0.0,0.0,0.0,0.0,0.0,0.0,0.0,0.0,0.0,0.0,0.0,0.0,0.0,0.0,0.0,0.0,0.0,0.0,0.0,0.0,0.0,0.0,0.0,0.0,0.0,-0.991090523522,-0.991090523522,-0.979954674943,-0.979954674943,-0.968818826365,-0.968818826365,-0.968818826365,-0.957682977786,-0.946547129207,-0.946547129207,-0.935411280628,-0.924275432049,-0.924275432049,-0.924275432049,-0.91313958347,-0.91313958347,-0.91313958347,-0.902003734891,-0.902003734891,-0.902003734891,-0.890867886312,-0.890867886312,-0.890867886312,-0.879732037733,-0.868596189154,-0.868596189154,-0.857460340576,-0.857460340576,-0.857460340576,-0.846324491997,-0.846324491997,-0.835188643418,-0.824052794839,-0.824052794839,-0.81291694626,-0.81291694626,-0.801781097681,-0.801781097681,-0.790645249102,-0.790645249102,-0.779509400523,-0.779509400523,-0.768373551944,-0.768373551944,-0.757237703365,-0.757237703365,-0.746101854787,-0.746101854787,-0.734966006208,-0.734966006208,-0.723830157629,-0.723830157629,-0.71269430905,-0.71269430905,-0.701558460471,-0.701558460471,-0.690422611892,-0.690422611892,-0.679286763313,-0.679286763313,-0.668150914734,-0.668150914734,-0.657015066155,-0.657015066155,-0.645879217576,-0.645879217576,-0.634743368997,-0.634743368997,-0.623607520419,-0.623607520419,-0.61247167184,-0.61247167184,-0.601335823261,-0.601335823261,-0.590199974682,-0.590199974682,-0.579064126103,-0.567928277524,-0.567928277524,-0.567928277524,-0.556792428945,-0.545656580366,-0.545656580366,-0.534520731787,-0.534520731787,-0.523384883208,-0.523384883208,-0.51224903463,-0.51224903463,-0.501113186051,-0.501113186051,-0.489977337472,-0.489977337472,-0.478841488893,-0.467705640314,-0.467705640314,-0.456569791735,-0.456569791735,-0.456569791735,-0.445433943156,-0.445433943156,-0.434298094577,-0.423162245998,-0.423162245998,-0.412026397419,-0.412026397419,-0.400890548841,-0.389754700262,-0.389754700262,-0.378618851683,-0.367483003104,-0.367483003104,-0.356347154525,-0.345211305946,-0.345211305946,-0.334075457367,-0.334075457367,-0.322939608788,-0.311803760209,-0.311803760209,-0.30066791163,-0.30066791163,-0.289532063051,-0.289532063051,-0.278396214473,-0.278396214473,-0.267260365894,-0.256124517315,-0.256124517315,-0.244988668736,-0.244988668736,-0.233852820157,-0.222716971578,-0.222716971578,-0.211581122999,-0.211581122999,-0.20044527442,-0.189309425841,-0.189309425841,-0.178173577262,-0.167037728684,-0.167037728684,-0.155901880105,-0.144766031526,-0.133630182947,-0.133630182947,-0.122494334368,-0.122494334368,-0.111358485789,-0.10022263721,-0.10022263721,-0.0890867886312,-0.0779509400523,-0.0779509400523,-0.0668150914734,-0.0668150914734,-0.0556792428945,-0.0445433943156,-0.0445433943156,-0.0334075457367,-0.0222716971578,-0.0222716971578,-0.0111358485789,0.0,0.0,0.0111358485789,0.0222716971578,0.0222716971578,0.0334075457367,0.0445433943156,0.0445433943156,0.0556792428945,0.0668150914734,0.0668150914734,0.0779509400523,0.0890867886312,0.10022263721,0.10022263721,0.111358485789,0.122494334368,0.122494334368,0.133630182947,0.144766031526,0.144766031526,0.155901880105,0.167037728684,0.167037728684,0.178173577262,0.189309425841,0.20044527442,0.211581122999,0.211581122999,0.222716971578,0.233852820157,0.244988668736,0.244988668736,0.256124517315,0.267260365894,0.278396214473,0.278396214473,0.289532063051,0.30066791163,0.311803760209,0.322939608788,0.322939608788,0.334075457367,0.345211305946,0.356347154525,0.356347154525,0.367483003104,0.378618851683,0.378618851683,0.389754700262,0.400890548841,0.412026397419,0.423162245998,0.434298094577,0.434298094577,0.445433943156,0.456569791735,0.456569791735,0.467705640314,0.478841488893,0.489977337472,0.501113186051,0.51224903463,0.523384883208,0.534520731787,0.545656580366,0.556792428945,0.556792428945,0.567928277524,0.579064126103,0.590199974682,0.601335823261,0.61247167184,0.623607520419,0.634743368997,0.634743368997,0.645879217576,0.657015066155,0.668150914734,0.668150914734,0.679286763313,0.690422611892,0.701558460471,0.701558460471,0.71269430905,0.723830157629,0.734966006208,0.746101854787,0.757237703365,0.768373551944,0.779509400523,0.790645249102,0.801781097681,0.81291694626,0.824052794839,0.835188643418,0.846324491997,0.857460340576,0.868596189154,0.879732037733,0.890867886312,0.902003734891,0.91313958347,0.924275432049,0.935411280628,0.946547129207,0.957682977786,0.968818826365,0.968818826365,0.979954674943,0.991090523522,1.0022263721,1.01336222068,1.02449806926,1.03563391784,1.04676976642,1.057905615,1.06904146357,1.08017731215,1.09131316073,1.10244900931,1.11358485789,1.12472070647,1.13585655505,1.14699240363,1.15812825221,1.16926410078,1.18039994936,1.19153579794,1.20267164652,1.2138074951,1.23607919226,1.24721504084,1.26948673799,1.28062258657,1.29175843515,1.31403013231,1.32516598089,1.33630182947,1.33630182947,1.34743767805,1.35857352663,1.36970937521,1.39198107236,1.39198107236,1.40311692094,1.41425276952,1.4253886181,1.43652446668,1.44766031526,1.45879616384,1.46993201242,1.46993201242,0.0,0.0,0.0,0.0,0.0,0.0,0.0,0.0,0.0,0.0,0.0,0.0,0.0,0.0,0.0,0.0,0.0,0.0,0.0,0.0,0.0,0.0,0.0,0.0,0.0,0.0,0.0,0.0,0.0,0.0,0.0,0.0,0.0,0.0,0.0,0.0,0.0,0.0,0.0,0.0,0.0,0.0,0.0,0.0,0.0,0.0,0.0,0.0,0.0,0.0,0.0,0.0,0.0,0.0,0.0,0.0,0.0,0.0,0.0,0.0,0.0,0.0,0.0,0.0,0.0,0.0,0.0,0.0,0.0,0.0,0.0,0.0,0.0,0.0,0.0,0.0,0.0,0.0,0.0,0.0,0.0,0.0,0.0,0.0,0.0,0.0,0.0,0.0,0.0,0.0,0.0,0.0,0.0,0.0,0.0,0.0,0.0,0.0,0.0,0.0,0.0,0.0,0.0,0.0,0.0,0.0,0.0,0.0,0.0,0.0,0.0,0.0,0.0,0.0,0.0,0.0,0.0,0.0,0.0,0.0,0.0,0.0,0.0,0.0,0.0,0.0,0.0,0.0
0.0,0.0,0.0,0.0,0.0,0.0,0.0,0.0,0.0,0.0,0.0,0.0,0.0,0.0,0.0,0.0,0.0,0.0,0.0,0.0,0.0,0.0,0.0,0.0,0.0,0.0,0.0,0.0,0.0,0.0,0.0,0.0,0.0,0.0,0.0,0.0,0.0,0.0,0.0,0.0,0.0,0.0,0.0,0.0,0.0,0.0,0.0,0.0,0.0,0.0,0.0,0.0,0.0,0.0,0.0,0.0,0.0,0.0,0.0,0.0,0.0,0.0,0.0,0.0,0.0,0.0,0.0,0.0,0.0,0.0,0.0,0.0,0.0,0.0,0.0,0.0,0.0,0.0,0.0,0.0,0.0,0.0,0.0,0.0,0.0,0.0,0.0,0.0,0.0,0.0,-0.946547129207,-0.935411280628,-0.935411280628,-0.924275432049,-0.924275432049,-0.91313958347,-0.91313958347,-0.91313958347,-0.91313958347,-0.902003734891,-0.902003734891,-0.902003734891,-0.890867886312,-0.890867886312,-0.879732037733,-0.879732037733,-0.868596189154,-0.868596189154,-0.857460340576,-0.857460340576,-0.857460340576,-0.846324491997,-0.846324491997,-0.835188643418,-0.824052794839,-0.824052794839,-0.81291694626,-0.801781097681,-0.801781097681,-0.790645249102,-0.790645249102,-0.779509400523,-0.779509400523,-0.768373551944,-0.768373551944,-0.757237703365,-0.757237703365,-0.746101854787,-0.746101854787,-0.734966006208,-0.734966006208,-0.723830157629,-0.723830157629,-0.723830157629,-0.71269430905,-0.71269430905,-0.701558460471,-0.701558460471,-0.690422611892,-0.690422611892,-0.679286763313,-0.679286763313,-0.668150914734,-0.668150914734,-0.657015066155,-0.657015066155,-0.645879217576,-0.645879217576,-0.634743368997,-0.634743368997,-0.623607520419,-0.623607520419,-0.61247167184,-0.61247167184,-0.601335823261,-0.590199974682,-0.590199974682,-0.579064126103,-0.579064126103,-0.567928277524,-0.567928277524,-0.556792428945,-0.556792428945,-0.545656580366,-0.545656580366,-0.534520731787,-0.534520731787,-0.523384883208,-0.51224903463,-0.51224903463,-0.501113186051,-0.501113186051,-0.489977337472,-0.489977337472,-0.478841488893,-0.478841488893,-0.467705640314,-0.467705640314,-0.456569791735,-0.456569791735,-0.445433943156,-0.445433943156,-0.434298094577,-0.434298094577,-0.423162245998,-0.423162245998,-0.412026397419,-0.400890548841,-0.400890548841,-0.389754700262,-0.378618851683,-0.378618851683,-0.367483003104,-0.356347154525,-0.356347154525,-0.345211305946,-0.345211305946,-0.334075457367,-0.334075457367,-0.322939608788,-0.311803760209,-0.311803760209,-0.30066791163,-0.30066791163,-0.289532063051,-0.289532063051,-0.278396214473,-0.267260365894,-0.267260365894,-0.256124517315,-0.256124517315,-0.244988668736,-0.233852820157,-0.233852820157,-0.222716971578,-0.222716971578,-0.211581122999,-0.211581122999,-0.20044527442,-0.189309425841,-0.189309425841,-0.178173577262,-0.167037728684,-0.167037728684,-0.155901880105,-0.144766031526,-0.133630182947,-0.133630182947,-0.122494334368,-0.122494334368,-0.111358485789,-0.10022263721,-0.10022263721,-0.0890867886312,-0.0779509400523,-0.0779509400523,-0.0668150914734,-0.0668150914734,-0.0556792428945,-0.0445433943156,-0.0445433943156,-0.0334075457367,-0.0334075457367,-0.0222716971578,-0.0111358485789,-0.0111358485789,0.0,0.0111358485789,0.0111358485789,0.0222716971578,0.0334075457367,0.0334075457367,0.0445433943156,0.0556792428945,0.0668150914734,0.0668150914734,0.0779509400523,0.0890867886312,0.10022263721,0.10022263721,0.111358485789,0.122494334368,0.122494334368,0.133630182947,0.144766031526,0.144766031526,0.155901880105,0.167037728684,0.178173577262,0.178173577262,0.189309425841,0.20044527442,0.211581122999,0.211581122999,0.222716971578,0.233852820157,0.244988668736,0.244988668736,0.256124517315,0.267260365894,0.278396214473,0.278396214473,0.289532063051,0.30066791163,0.311803760209,0.322939608788,0.322939608788,0.334075457367,0.345211305946,0.356347154525,0.356347154525,0.367483003104,0.378618851683,0.378618851683,0.389754700262,0.400890548841,0.412026397419,0.423162245998,0.434298094577,0.434298094577,0.445433943156,0.456569791735,0.456569791735,0.467705640314,0.478841488893,0.489977337472,0.501113186051,0.51224903463,0.523384883208,0.534520731787,0.545656580366,0.545656580366,0.556792428945,0.567928277524,0.579064126103,0.590199974682,0.601335823261,0.61247167184,0.623607520419,0.634743368997,0.634743368997,0.645879217576,0.657015066155,0.668150914734,0.668150914734,0.679286763313,0.690422611892,0.701558460471,0.701558460471,0.71269430905,0.723830157629,0.734966006208,0.746101854787,0.757237703365,0.768373551944,0.779509400523,0.790645249102,0.801781097681,0.81291694626,0.824052794839,0.835188643418,0.846324491997,0.857460340576,0.868596189154,0.879732037733,0.890867886312,0.902003734891,0.91313958347,0.924275432049,0.935411280628,0.946547129207,0.957682977786,0.968818826365,0.968818826365,0.979954674943,0.991090523522,1.0022263721,1.01336222068,1.02449806926,1.03563391784,1.04676976642,1.057905615,1.06904146357,1.08017731215,1.09131316073,1.10244900931,1.11358485789,1.12472070647,1.13585655505,1.14699240363,1.15812825221,1.16926410078,1.18039994936,1.19153579794,1.20267164652,1.2138074951,1.23607919226,1.24721504084,1.26948673799,1.28062258657,1.29175843515,1.30289428373,1.32516598089,1.32516598089,1.33630182947,1.34743767805,1.35857352663,1.36970937521,1.38084522378,1.39198107236,1.40311692094,1.41425276952,1.4253886181,1.43652446668,1.44766031526,1.45879616384,1.46993201242,1.46993201242,0.0,0.0,0.0,0.0,0.0,0.0,0.0,0.0,0.0,0.0,0.0,0.0,0.0,0.0,0.0,0.0,0.0,0.0,0.0,0.0,0.0,0.0,0.0,0.0,0.0,0.0,0.0,0.0,0.0,0.0,0.0,0.0,0.0,0.0,0.0,0.0,0.0,0.0,0.0,0.0,0.0,0.0,0.0,0.0,0.0,0.0,0.0,0.0,0.0,0.0,0.0,0.0,0.0,0.0,0.0,0.0,0.0,0.0,0.0,0.0,0.0,0.0,0.0,0.0,0.0,0.0,0.0,0.0,0.0,0.0,0.0,0.0,0.0,0.0,0.0,0.0,0.0,0.0,0.0,0.0,0.0,0.0,0.0,0.0,0.0,0.0,0.0,0.0,0.0,0.0,0.0,0.0,0.0,0.0,0.0,0.0,0.0,0.0,0.0,0.0,0.0,0.0,0.0,0.0,0.0,0.0,0.0,0.0,0.0,0.0,0.0,0.0,0.0,0.0,0.0,0.0,0.0,0.0,0.0,0.0,0.0,0.0,0.0,0.0,0.0,0.0,0.0,0.0
0.0,0.0,0.0,0.0,0.0,0.0,0.0,0.0,0.0,0.0,0.0,0.0,0.0,0.0,0.0,0.0,0.0,0.0,0.0,0.0,0.0,0.0,0.0,0.0,0.0,0.0,0.0,0.0,0.0,0.0,0.0,0.0,0.0,0.0,0.0,0.0,0.0,0.0,0.0,0.0,0.0,0.0,0.0,0.0,0.0,0.0,0.0,0.0,0.0,0.0,0.0,0.0,0.0,0.0,0.0,0.0,0.0,0.0,0.0,0.0,0.0,0.0,0.0,0.0,0.0,0.0,0.0,0.0,0.0,0.0,0.0,0.0,0.0,0.0,0.0,0.0,0.0,0.0,0.0,0.0,0.0,0.0,0.0,0.0,0.0,0.0,0.0,0.0,0.0,0.0,0.0,0.0,0.0,0.0,0.0,0.0,-0.91313958347,-0.91313958347,-0.91313958347,-0.902003734891,-0.902003734891,-0.902003734891,-0.890867886312,-0.890867886312,-0.879732037733,-0.879732037733,-0.868596189154,-0.868596189154,-0.857460340576,-0.857460340576,-0.846324491997,-0.846324491997,-0.835188643418,-0.835188643418,-0.824052794839,-0.81291694626,-0.81291694626,-0.801781097681,-0.801781097681,-0.790645249102,-0.790645249102,-0.779509400523,-0.779509400523,-0.768373551944,-0.768373551944,-0.757237703365,-0.746101854787,-0.746101854787,-0.734966006208,-0.734966006208,-0.734966006208,-0.723830157629,-0.723830157629,-0.71269430905,-0.71269430905,-0.701558460471,-0.701558460471,-0.690422611892,-0.690422611892,-0.679286763313,-0.679286763313,-0.679286763313,-0.668150914734,-0.657015066155,-0.657015066155,-0.645879217576,-0.645879217576,-0.634743368997,-0.634743368997,-0.623607520419,-0.623607520419,-0.61247167184,-0.61247167184,-0.601335823261,-0.601335823261,-0.590199974682,-0.579064126103,-0.579064126103,-0.567928277524,-0.567928277524,-0.556792428945,-0.556792428945,-0.545656580366,-0.545656580366,-0.534520731787,-0.534520731787,-0.523384883208,-0.523384883208,-0.51224903463,-0.51224903463,-0.501113186051,-0.501113186051,-0.489977337472,-0.489977337472,-0.478841488893,-0.478841488893,-0.467705640314,-0.467705640314,-0.456569791735,-0.456569791735,-0.445433943156,-0.445433943156,-0.434298094577,-0.434298094577,-0.423162245998,-0.412026397419,-0.412026397419,-0.400890548841,-0.400890548841,-0.389754700262,-0.378618851683,-0.378618851683,-0.367483003104,-0.356347154525,-0.356347154525,-0.345211305946,-0.345211305946,-0.334075457367,-0.322939608788,-0.322939608788,-0.311803760209,-0.311803760209,-0.30066791163,-0.30066791163,-0.289532063051,-0.278396214473,-0.278396214473,-0.267260365894,-0.267260365894,-0.256124517315,-0.256124517315,-0.244988668736,-0.233852820157,-0.233852820157,-0.222716971578,-0.222716971578,-0.211581122999,-0.20044527442,-0.20044527442,-0.189309425841,-0.189309425841,-0.178173577262,-0.167037728684,-0.167037728684,-0.155901880105,-0.144766031526,-0.133630182947,-0.133630182947,-0.122494334368,-0.111358485789,-0.111358485789,-0.10022263721,-0.10022263721,-0.0890867886312,-0.0779509400523,-0.0779509400523,-0.0668150914734,-0.0668150914734,-0.0556792428945,-0.0445433943156,-0.0445433943156,-0.0334075457367,-0.0334075457367,-0.0222716971578,-0.0111358485789,-0.0111358485789,0.0,0.0111358485789,0.0111358485789,0.0222716971578,0.0334075457367,0.0334075457367,0.0445433943156,0.0556792428945,0.0668150914734,0.0668150914734,0.0779509400523,0.0890867886312,0.10022263721,0.10022263721,0.111358485789,0.122494334368,0.122494334368,0.133630182947,0.144766031526,0.144766031526,0.155901880105,0.167037728684,0.178173577262,0.178173577262,0.189309425841,0.20044527442,0.211581122999,0.222716971578,0.222716971578,0.233852820157,0.244988668736,0.244988668736,0.256124517315,0.267260365894,0.278396214473,0.278396214473,0.289532063051,0.30066791163,0.311803760209,0.322939608788,0.322939608788,0.334075457367,0.345211305946,0.356347154525,0.356347154525,0.367483003104,0.378618851683,0.378618851683,0.389754700262,0.400890548841,0.412026397419,0.423162245998,0.423162245998,0.434298094577,0.445433943156,0.456569791735,0.456569791735,0.467705640314,0.478841488893,0.489977337472,0.501113186051,0.51224903463,0.523384883208,0.534520731787,0.534520731787,0.545656580366,0.556792428945,0.567928277524,0.579064126103,0.590199974682,0.601335823261,0.61247167184,0.61247167184,0.623607520419,0.634743368997,0.645879217576,0.657015066155,0.668150914734,0.668150914734,0.679286763313,0.690422611892,0.701558460471,0.701558460471,0.71269430905,0.723830157629,0.734966006208,0.746101854787,0.757237703365,0.768373551944,0.779509400523,0.790645249102,0.801781097681,0.81291694626,0.824052794839,0.835188643418,0.846324491997,0.857460340576,0.868596189154,0.879732037733,0.890867886312,0.902003734891,0.91313958347,0.924275432049,0.935411280628,0.946547129207,0.957682977786,0.968818826365,0.968818826365,0.979954674943,0.991090523522,1.0022263721,1.01336222068,1.02449806926,1.03563391784,1.04676976642,1.057905615,1.06904146357,1.08017731215,1.10244900931,1.11358485789,1.12472070647,1.13585655505,1.13585655505,1.14699240363,1.15812825221,1.16926410078,1.18039994936,1.19153579794,1.20267164652,1.2138074951,1.23607919226,1.24721504084,1.26948673799,1.28062258657,1.29175843515,1.30289428373,1.31403013231,1.32516598089,1.33630182947,1.34743767805,1.35857352663,1.36970937521,1.39198107236,1.40311692094,1.40311692094,1.41425276952,1.4253886181,1.43652446668,1.45879616384,1.46993201242,1.48106786099,0.0,0.0,0.0,0.0,0.0,0.0,0.0,0.0,0.0,0.0,0.0,0.0,0.0,0.0,0.0,0.0,0.0,0.0,0.0,0.0,0.0,0.0,0.0,0.0,0.0,0.0,0.0,0.0,0.0,0.0,0.0,0.0,0.0,0.0,0.0,0.0,0.0,0.0,0.0,0.0,0.0,0.0,0.0,0.0,0.0,0.0,0.0,0.0,0.0,0.0,0.0,0.0,0.0,0.0,0.0,0.0,0.0,0.0,0.0,0.0,0.0,0.0,0.0,0.0,0.0,0.0,0.0,0.0,0.0,0.0,0.0,0.0,0.0,0.0,0.0,0.0,0.0,0.0,0.0,0.0,0.0,0.0,0.0,0.0,0.0,0.0,0.0,0.0,0.0,0.0,0.0,0.0,0.0,0.0,0.0,0.0,0.0,0.0,0.0,0.0,0.0,0.0,0.0,0.0,0.0,0.0,0.0,0.0,0.0,0.0,0.0,0.0,0.0,0.0,0.0,0.0,0.0,0.0,0.0,0.0,0.0,0.0,0.0,0.0,0.0,0.0,0.0,0.0,0.0
0.0,0.0,0.0,0.0,0.0,0.0,0.0,0.0,0.0,0.0,0.0,0.0,0.0,0.0,0.0,0.0,0.0,0.0,0.0,0.0,0.0,0.0,0.0,0.0,0.0,0.0,0.0,0.0,0.0,0.0,0.0,0.0,0.0,0.0,0.0,0.0,0.0,0.0,0.0,0.0,0.0,0.0,0.0,0.0,0.0,0.0,0.0,0.0,0.0,0.0,0.0,0.0,0.0,0.0,0.0,0.0,0.0,0.0,0.0,0.0,0.0,0.0,0.0,0.0,0.0,0.0,0.0,0.0,0.0,0.0,0.0,0.0,0.0,0.0,0.0,0.0,0.0,0.0,0.0,0.0,0.0,0.0,0.0,0.0,0.0,0.0,0.0,0.0,0.0,0.0,0.0,0.0,0.0,0.0,0.0,0.0,0.0,0.0,0.0,0.0,0.0,0.0,0.0,0.0,-0.879732037733,-0.879732037733,-0.868596189154,-0.868596189154,-0.857460340576,-0.857460340576,-0.846324491997,-0.846324491997,-0.835188643418,-0.824052794839,-0.824052794839,-0.81291694626,-0.801781097681,-0.801781097681,-0.790645249102,-0.790645249102,-0.779509400523,-0.779509400523,-0.768373551944,-0.768373551944,-0.757237703365,-0.757237703365,-0.746101854787,-0.746101854787,-0.734966006208,-0.734966006208,-0.723830157629,-0.723830157629,-0.723830157629,-0.71269430905,-0.71269430905,-0.701558460471,-0.701558460471,-0.690422611892,-0.690422611892,-0.679286763313,-0.679286763313,-0.668150914734,-0.668150914734,-0.657015066155,-0.657015066155,-0.645879217576,-0.645879217576,-0.634743368997,-0.634743368997,-0.623607520419,-0.623607520419,-0.61247167184,-0.61247167184,-0.601335823261,-0.590199974682,-0.590199974682,-0.579064126103,-0.567928277524,-0.567928277524,-0.556792428945,-0.556792428945,-0.556792428945,-0.545656580366,-0.545656580366,-0.534520731787,-0.534520731787,-0.523384883208,-0.523384883208,-0.51224903463,-0.501113186051,-0.501113186051,-0.489977337472,-0.489977337472,-0.478841488893,-0.478841488893,-0.467705640314,-0.467705640314,-0.467705640314,-0.456569791735,-0.456569791735,-0.445433943156,-0.445433943156,-0.434298094577,-0.434298094577,-0.423162245998,-0.412026397419,-0.412026397419,-0.400890548841,-0.389754700262,-0.389754700262,-0.378618851683,-0.378618851683,-0.367483003104,-0.356347154525,-0.356347154525,-0.345211305946,-0.334075457367,-0.334075457367,-0.322939608788,-0.322939608788,-0.311803760209,-0.311803760209,-0.30066791163,-0.289532063051,-0.289532063051,-0.278396214473,-0.278396214473,-0.267260365894,-0.267260365894,-0.256124517315,-0.256124517315,-0.244988668736,-0.233852820157,-0.233852820157,-0.222716971578,-0.211581122999,-0.211581122999,-0.20044527442,-0.20044527442,-0.189309425841,-0.178173577262,-0.178173577262,-0.167037728684,-0.155901880105,-0.155901880105,-0.144766031526,-0.133630182947,-0.133630182947,-0.122494334368,-0.111358485789,-0.111358485789,-0.10022263721,-0.10022263721,-0.0890867886312,-0.0779509400523,-0.0779509400523,-0.0668150914734,-0.0668150914734,-0.0556792428945,-0.0445433943156,-0.0445433943156,-0.0334075457367,-0.0334075457367,-0.0222716971578,-0.0111358485789,-0.0111358485789,0.0,0.0111358485789,0.0111358485789,0.0222716971578,0.0334075457367,0.0334075457367,0.0445433943156,0.0556792428945,0.0668150914734,0.0779509400523,0.0779509400523,0.0890867886312,0.10022263721,0.111358485789,0.111358485789,0.122494334368,0.133630182947,0.133630182947,0.144766031526,0.155901880105,0.155901880105,0.167037728684,0.178173577262,0.178173577262,0.189309425841,0.20044527442,0.211581122999,0.222716971578,0.222716971578,0.233852820157,0.244988668736,0.244988668736,0.256124517315,0.267260365894,0.278396214473,0.278396214473,0.289532063051,0.30066791163,0.311803760209,0.322939608788,0.322939608788,0.334075457367,0.345211305946,0.345211305946,0.356347154525,0.367483003104,0.367483003104,0.378618851683,0.389754700262,0.400890548841,0.412026397419,0.412026397419,0.423162245998,0.434298094577,0.445433943156,0.456569791735,0.456569791735,0.467705640314,0.478841488893,0.489977337472,0.501113186051,0.51224903463,0.523384883208,0.523384883208,0.534520731787,0.545656580366,0.556792428945,0.567928277524,0.579064126103,0.579064126103,0.590199974682,0.601335823261,0.61247167184,0.623607520419,0.634743368997,0.645879217576,0.657015066155,0.668150914734,0.668150914734,0.679286763313,0.690422611892,0.690422611892,0.701558460471,0.71269430905,0.723830157629,0.734966006208,0.746101854787,0.757237703365,0.768373551944,0.779509400523,0.790645249102,0.801781097681,0.81291694626,0.824052794839,0.835188643418,0.846324491997,0.857460340576,0.868596189154,0.879732037733,0.890867886312,0.902003734891,0.91313958347,0.924275432049,0.935411280628,0.946547129207,0.957682977786,0.968818826365,0.968818826365,0.979954674943,0.991090523522,1.0022263721,1.01336222068,1.02449806926,1.03563391784,1.04676976642,1.057905615,1.06904146357,1.09131316073,1.10244900931,1.11358485789,1.12472070647,1.13585655505,1.14699240363,1.15812825221,1.15812825221,1.16926410078,1.18039994936,1.19153579794,1.20267164652,1.2138074951,1.22494334368,1.24721504084,1.25835088942,1.28062258657,1.29175843515,1.30289428373,1.31403013231,1.32516598089,1.33630182947,1.34743767805,1.35857352663,1.36970937521,1.39198107236,1.40311692094,1.40311692094,1.41425276952,1.4253886181,1.44766031526,1.46993201242,1.48106786099,0.0,0.0,0.0,0.0,0.0,0.0,0.0,0.0,0.0,0.0,0.0,0.0,0.0,0.0,0.0,0.0,0.0,0.0,0.0,0.0,0.0,0.0,0.0,0.0,0.0,0.0,0.0,0.0,0.0,0.0,0.0,0.0,0.0,0.0,0.0,0.0,0.0,0.0,0.0,0.0,0.0,0.0,0.0,0.0,0.0,0.0,0.0,0.0,0.0,0.0,0.0,0.0,0.0,0.0,0.0,0.0,0.0,0.0,0.0,0.0,0.0,0.0,0.0,0.0,0.0,0.0,0.0,0.0,0.0,0.0,0.0,0.0,0.0,0.0,0.0,0.0,0.0,0.0,0.0,0.0,0.0,0.0,0.0,0.0,0.0,0.0,0.0,0.0,0.0,0.0,0.0,0.0,0.0,0.0,0.0,0.0,0.0,0.0,0.0,0.0,0.0,0.0,0.0,0.0,0.0,0.0,0.0,0.0,0.0,0.0,0.0,0.0,0.0,0.0,0.0,0.0,0.0,0.0,0.0,0.0,0.0,0.0,0.0,0.0,0.0,0.0,0.0,0.0,0.0,0.0
0.0,0.0,0.0,0.0,0.0,0.0,0.0,0.0,0.0,0.0,0.0,0.0,0.0,0.0,0.0,0.0,0.0,0.0,0.0,0.0,0.0,0.0,0.0,0.0,0.0,0.0,0.0,0.0,0.0,0.0,0.0,0.0,0.0,0.0,0.0,0.0,0.0,0.0,0.0,0.0,0.0,0.0,0.0,0.0,0.0,0.0,0.0,0.0,0.0,0.0,0.0,0.0,0.0,0.0,0.0,0.0,0.0,0.0,0.0,0.0,0.0,0.0,0.0,0.0,0.0,0.0,0.0,0.0,0.0,0.0,0.0,0.0,0.0,0.0,0.0,0.0,0.0,0.0,0.0,0.0,0.0,0.0,0.0,0.0,0.0,0.0,0.0,0.0,0.0,0.0,0.0,0.0,0.0,0.0,0.0,0.0,0.0,0.0,0.0,0.0,0.0,0.0,0.0,0.0,0.0,0.0,0.0,0.0,0.0,0.0,0.0,0.0,0.0,0.0,-0.81291694626,-0.81291694626,-0.801781097681,-0.801781097681,-0.790645249102,-0.790645249102,-0.779509400523,-0.779509400523,-0.768373551944,-0.768373551944,-0.757237703365,-0.746101854787,-0.746101854787,-0.734966006208,-0.734966006208,-0.734966006208,-0.723830157629,-0.723830157629,-0.71269430905,-0.71269430905,-0.701558460471,-0.701558460471,-0.690422611892,-0.690422611892,-0.679286763313,-0.679286763313,-0.668150914734,-0.668150914734,-0.657015066155,-0.657015066155,-0.645879217576,-0.645879217576,-0.634743368997,-0.634743368997,-0.623607520419,-0.623607520419,-0.61247167184,-0.61247167184,-0.601335823261,-0.590199974682,-0.590199974682,-0.579064126103,-0.579064126103,-0.567928277524,-0.567928277524,-0.556792428945,-0.556792428945,-0.545656580366,-0.545656580366,-0.534520731787,-0.534520731787,-0.523384883208,-0.523384883208,-0.51224903463,-0.51224903463,-0.501113186051,-0.501113186051,-0.489977337472,-0.489977337472,-0.478841488893,-0.478841488893,-0.467705640314,-0.467705640314,-0.456569791735,-0.456569791735,-0.445433943156,-0.445433943156,-0.434298094577,-0.434298094577,-0.423162245998,-0.423162245998,-0.412026397419,-0.412026397419,-0.400890548841,-0.389754700262,-0.389754700262,-0.378618851683,-0.367483003104,-0.367483003104,-0.356347154525,-0.345211305946,-0.345211305946,-0.334075457367,-0.334075457367,-0.322939608788,-0.311803760209,-0.311803760209,-0.30066791163,-0.30066791163,-0.289532063051,-0.289532063051,-0.278396214473,-0.278396214473,-0.267260365894,-0.267260365894,-0.256124517315,-0.244988668736,-0.244988668736,-0.233852820157,-0.222716971578,-0.222716971578,-0.211581122999,-0.211581122999,-0.20044527442,-0.20044527442,-0.189309425841,-0.178173577262,-0.178173577262,-0.167037728684,-0.155901880105,-0.155901880105,-0.144766031526,-0.133630182947,-0.133630182947,-0.122494334368,-0.111358485789,-0.111358485789,-0.10022263721,-0.10022263721,-0.0890867886312,-0.0779509400523,-0.0779509400523,-0.0668150914734,-0.0556792428945,-0.0556792428945,-0.0445433943156,-0.0445433943156,-0.0334075457367,-0.0334075457367,-0.0222716971578,-0.0111358485789,-0.0111358485789,0.0,0.0111358485789,0.0111358485789,0.0222716971578,0.0334075457367,0.0334075457367,0.0445433943156,0.0556792428945,0.0668150914734,0.0779509400523,0.0779509400523,0.0890867886312,0.10022263721,0.111358485789,0.111358485789,0.122494334368,0.133630182947,0.133630182947,0.144766031526,0.155901880105,0.155901880105,0.167037728684,0.178173577262,0.178173577262,0.189309425841,0.20044527442,0.211581122999,0.222716971578,0.222716971578,0.233852820157,0.244988668736,0.244988668736,0.256124517315,0.267260365894,0.278396214473,0.278396214473,0.289532063051,0.30066791163,0.311803760209,0.322939608788,0.322939608788,0.334075457367,0.345211305946,0.345211305946,0.356347154525,0.367483003104,0.367483003104,0.378618851683,0.389754700262,0.400890548841,0.412026397419,0.423162245998,0.423162245998,0.434298094577,0.445433943156,0.456569791735,0.456569791735,0.467705640314,0.478841488893,0.489977337472,0.501113186051,0.51224903463,0.523384883208,0.523384883208,0.534520731787,0.545656580366,0.556792428945,0.567928277524,0.567928277524,0.579064126103,0.590199974682,0.601335823261,0.61247167184,0.623607520419,0.634743368997,0.645879217576,0.657015066155,0.668150914734,0.668150914734,0.679286763313,0.690422611892,0.690422611892,0.701558460471,0.71269430905,0.723830157629,0.734966006208,0.746101854787,0.757237703365,0.768373551944,0.779509400523,0.790645249102,0.801781097681,0.81291694626,0.824052794839,0.835188643418,0.846324491997,0.857460340576,0.868596189154,0.879732037733,0.890867886312,0.902003734891,0.91313958347,0.924275432049,0.935411280628,0.946547129207,0.957682977786,0.968818826365,0.968818826365,0.979954674943,0.991090523522,1.0022263721,1.01336222068,1.02449806926,1.03563391784,1.04676976642,1.057905615,1.08017731215,1.09131316073,1.10244900931,1.11358485789,1.12472070647,1.13585655505,1.14699240363,1.15812825221,1.16926410078,1.16926410078,1.18039994936,1.19153579794,1.20267164652,1.2138074951,1.22494334368,1.24721504084,1.25835088942,1.26948673799,1.29175843515,1.30289428373,1.31403013231,1.32516598089,1.33630182947,1.34743767805,1.35857352663,1.38084522378,1.39198107236,1.40311692094,1.40311692094,1.41425276952,1.4253886181,1.44766031526,1.46993201242,1.49220370957,0.0,0.0,0.0,0.0,0.0,0.0,0.0,0.0,0.0,0.0,0.0,0.0,0.0,0.0,0.0,0.0,0.0,0.0,0.0,0.0,0.0,0.0,0.0,0.0,0.0,0.0,0.0,0.0,0.0,0.0,0.0,0.0,0.0,0.0,0.0,0.0,0.0,0.0,0.0,0.0,0.0,0.0,0.0,0.0,0.0,0.0,0.0,0.0,0.0,0.0,0.0,0.0,0.0,0.0,0.0,0.0,0.0,0.0,0.0,0.0,0.0,0.0,0.0,0.0,0.0,0.0,0.0,0.0,0.0,0.0,0.0,0.0,0.0,0.0,0.0,0.0,0.0,0.0,0.0,0.0,0.0,0.0,0.0,0.0,0.0,0.0,0.0,0.0,0.0,0.0,0.0,0.0,0.0,0.0,0.0,0.0,0.0,0.0,0.0,0.0,0.0,0.0,0.0,0.0,0.0,0.0,0.0,0.0,0.0,0.0,0.0,0.0,0.0,0.0,0.0,0.0,0.0,0.0,0.0,0.0,0.0,0.0,0.0,0.0,0.0,0.0,0.0,0.0,0.0,0.0
0.0,0.0,0.0,0.0,0.0,0.0,0.0,0.0,0.0,0.0,0.0,0.0,0.0,0.0,0.0,0.0,0.0,0.0,0.0,0.0,0.0,0.0,0.0,0.0,0.0,0.0,0.0,0.0,0.0,0.0,0.0,0.0,0.0,0.0,0.0,0.0,0.0,0.0,0.0,0.0,0.0,0.0,0.0,0.0,0.0,0.0,0.0,0.0,0.0,0.0,0.0,0.0,0.0,0.0,0.0,0.0,0.0,0.0,0.0,0.0,0.0,0.0,0.0,0.0,0.0,0.0,0.0,0.0,0.0,0.0,0.0,0.0,0.0,0.0,0.0,0.0,0.0,0.0,0.0,0.0,0.0,0.0,0.0,0.0,0.0,0.0,0.0,0.0,0.0,0.0,0.0,0.0,0.0,0.0,0.0,0.0,0.0,0.0,0.0,0.0,0.0,0.0,0.0,0.0,0.0,0.0,0.0,0.0,0.0,0.0,0.0,0.0,0.0,0.0,0.0,0.0,0.0,0.0,0.0,0.0,0.0,0.0,-0.768373551944,-0.768373551944,-0.757237703365,-0.746101854787,-0.734966006208,-0.734966006208,-0.734966006208,-0.723830157629,-0.723830157629,-0.723830157629,-0.71269430905,-0.71269430905,-0.701558460471,-0.701558460471,-0.690422611892,-0.690422611892,-0.679286763313,-0.679286763313,-0.668150914734,-0.668150914734,-0.657015066155,-0.657015066155,-0.645879217576,-0.645879217576,-0.634743368997,-0.634743368997,-0.623607520419,-0.623607520419,-0.61247167184,-0.601335823261,-0.601335823261,-0.590199974682,-0.579064126103,-0.579064126103,-0.567928277524,-0.567928277524,-0.556792428945,-0.556792428945,-0.545656580366,-0.545656580366,-0.534520731787,-0.534520731787,-0.534520731787,-0.523384883208,-0.523384883208,-0.51224903463,-0.501113186051,-0.501113186051,-0.489977337472,-0.489977337472,-0.478841488893,-0.478841488893,-0.467705640314,-0.467705640314,-0.456569791735,-0.456569791735,-0.445433943156,-0.445433943156,-0.445433943156,-0.434298094577,-0.434298094577,-0.423162245998,-0.412026397419,-0.412026397419,-0.400890548841,-0.400890548841,-0.389754700262,-0.389754700262,-0.378618851683,-0.367483003104,-0.367483003104,-0.356347154525,-0.345211305946,-0.345211305946,-0.334075457367,-0.322939608788,-0.322939608788,-0.311803760209,-0.311803760209,-0.30066791163,-0.30066791163,-0.289532063051,-0.289532063051,-0.278396214473,-0.278396214473,-0.267260365894,-0.267260365894,-0.256124517315,-0.244988668736,-0.244988668736,-0.233852820157,-0.222716971578,-0.222716971578,-0.211581122999,-0.211581122999,-0.20044527442,-0.189309425841,-0.189309425841,-0.178173577262,-0.178173577262,-0.167037728684,-0.155901880105,-0.155901880105,-0.144766031526,-0.133630182947,-0.133630182947,-0.122494334368,-0.111358485789,-0.111358485789,-0.10022263721,-0.10022263721,-0.0890867886312,-0.0779509400523,-0.0779509400523,-0.0668150914734,-0.0556792428945,-0.0556792428945,-0.0445433943156,-0.0445433943156,-0.0334075457367,-0.0334075457367,-0.0222716971578,-0.0111358485789,-0.0111358485789,0.0,0.0111358485789,0.0111358485789,0.0222716971578,0.0334075457367,0.0334075457367,0.0445433943156,0.0556792428945,0.0668150914734,0.0779509400523,0.0779509400523,0.0890867886312,0.10022263721,0.111358485789,0.111358485789,0.122494334368,0.133630182947,0.133630182947,0.144766031526,0.155901880105,0.155901880105,0.167037728684,0.178173577262,0.178173577262,0.189309425841,0.20044527442,0.211581122999,0.222716971578,0.233852820157,0.233852820157,0.244988668736,0.256124517315,0.256124517315,0.267260365894,0.278396214473,0.278396214473,0.289532063051,0.30066791163,0.311803760209,0.322939608788,0.322939608788,0.334075457367,0.345211305946,0.345211305946,0.356347154525,0.367483003104,0.367483003104,0.378618851683,0.389754700262,0.400890548841,0.412026397419,0.423162245998,0.434298094577,0.434298094577,0.445433943156,0.456569791735,0.456569791735,0.467705640314,0.478841488893,0.489977337472,0.501113186051,0.51224903463,0.51224903463,0.523384883208,0.534520731787,0.545656580366,0.556792428945,0.556792428945,0.567928277524,0.579064126103,0.590199974682,0.601335823261,0.61247167184,0.623607520419,0.634743368997,0.645879217576,0.657015066155,0.668150914734,0.668150914734,0.679286763313,0.690422611892,0.690422611892,0.701558460471,0.71269430905,0.723830157629,0.734966006208,0.746101854787,0.757237703365,0.768373551944,0.779509400523,0.790645249102,0.801781097681,0.81291694626,0.824052794839,0.835188643418,0.846324491997,0.857460340576,0.868596189154,0.879732037733,0.890867886312,0.902003734891,0.91313958347,0.924275432049,0.935411280628,0.946547129207,0.957682977786,0.957682977786,0.968818826365,0.979954674943,0.991090523522,1.0022263721,1.01336222068,1.03563391784,1.04676976642,1.057905615,1.06904146357,1.08017731215,1.09131316073,1.10244900931,1.11358485789,1.12472070647,1.13585655505,1.14699240363,1.15812825221,1.16926410078,1.16926410078,1.18039994936,1.19153579794,1.20267164652,1.2138074951,1.22494334368,1.24721504084,1.25835088942,1.26948673799,1.29175843515,1.30289428373,1.31403013231,1.32516598089,1.33630182947,1.34743767805,1.36970937521,1.38084522378,1.39198107236,1.40311692094,1.41425276952,1.41425276952,1.4253886181,1.44766031526,1.45879616384,1.46993201242,0.0,0.0,0.0,0.0,0.0,0.0,0.0,0.0,0.0,0.0,0.0,0.0,0.0,0.0,0.0,0.0,0.0,0.0,0.0,0.0,0.0,0.0,0.0,0.0,0.0,0.0,0.0,0.0,0.0,0.0,0.0,0.0,0.0,0.0,0.0,0.0,0.0,0.0,0.0,0.0,0.0,0.0,0.0,0.0,0.0,0.0,0.0,0.0,0.0,0.0,0.0,0.0,0.0,0.0,0.0,0.0,0.0,0.0,0.0,0.0,0.0,0.0,0.0,0.0,0.0,0.0,0.0,0.0,0.0,0.0,0.0,0.0,0.0,0.0,0.0,0.0,0.0,0.0,0.0,0.0,0.0,0.0,0.0,0.0,0.0,0.0,0.0,0.0,0.0,0.0,0.0,0.0,0.0,0.0,0.0,0.0,0.0,0.0,0.0,0.0,0.0,0.0,0.0,0.0,0.0,0.0,0.0,0.0,0.0,0.0,0.0,0.0,0.0,0.0,0.0,0.0,0.0,0.0,0.0,0.0,0.0,0.0,0.0,0.0,0.0,0.0,0.0,0.0,0.0,0.0
