0.0,0.0,0.0,0.0,0.0,0.0,0.0,0.0,0.0,0.0,0.0,0.0,0.0,0.0,0.0,0.0,0.0,0.0,0.0,0.0,0.0,0.0,0.0,0.0,0.0,0.0,0.0,0.0,0.0,0.0,0.0,0.0,0.0,0.0,0.0,0.0,0.0,0.0,0.0,0.0,0.0,0.0,0.0,0.0,0.0,0.0,0.0,0.0,0.0,0.0,0.0,0.0,0.0,0.0,0.0,0.0,0.0,0.0,0.0,0.0,0.0,0.0,0.0,0.0,0.0,0.0,0.0,0.0,0.0,0.0,0.0,0.0,0.0,0.0,0.0,0.0,0.0,0.0,-1.19400459197,-1.19400459197,-1.19400459197,-1.18379942452,-1.17359425707,-1.17359425707,-1.16338908961,-1.16338908961,-1.16338908961,-1.15318392216,-1.15318392216,-1.14297875471,-1.14297875471,-1.13277358725,-1.13277358725,-1.1225684198,-1.1225684198,-1.1225684198,-1.1225684198,-1.11236325235,-1.11236325235,-1.11236325235,-1.1021580849,-1.1021580849,-1.09195291744,-1.09195291744,-1.08174774999,-1.08174774999,-1.07154258254,-1.07154258254,-1.07154258254,-1.06133741508,-1.06133741508,-1.06133741508,-1.05113224763,-1.05113224763,-1.04092708018,-1.04092708018,-1.04092708018,-1.03072191273,-1.03072191273,-1.02051674527,-1.02051674527,-1.01031157782,-1.01031157782,-1.01031157782,-1.00010641037,-1.00010641037,-0.989901242916,-0.989901242916,-0.979696075463,-0.979696075463,-0.96949090801,-0.96949090801,-0.959285740558,-0.959285740558,-0.949080573105,-0.949080573105,-0.938875405652,-0.938875405652,-0.938875405652,-0.928670238199,-0.928670238199,-0.918465070747,-0.918465070747,-0.918465070747,-0.908259903294,-0.908259903294,-0.898054735841,-0.898054735841,-0.887849568388,-0.887849568388,-0.877644400936,-0.877644400936,-0.867439233483,-0.867439233483,-0.85723406603,-0.85723406603,-0.847028898577,-0.847028898577,-0.836823731125,-0.836823731125,-0.826618563672,-0.826618563672,-0.816413396219,-0.816413396219,-0.806208228766,-0.806208228766,-0.796003061314,-0.796003061314,-0.785797893861,-0.785797893861,-0.775592726408,-0.775592726408,-0.765387558955,-0.765387558955,-0.755182391503,-0.755182391503,-0.74497722405,-0.74497722405,-0.74497722405,-0.734772056597,-0.734772056597,-0.724566889145,-0.714361721692,-0.714361721692,-0.704156554239,-0.704156554239,-0.693951386786,-0.683746219334,-0.683746219334,-0.673541051881,-0.673541051881,-0.663335884428,-0.663335884428,-0.653130716975,-0.653130716975,-0.642925549523,-0.642925549523,-0.63272038207,-0.622515214617,-0.622515214617,-0.612310047164,-0.612310047164,-0.602104879712,-0.602104879712,-0.591899712259,-0.591899712259,-0.581694544806,-0.571489377353,-0.571489377353,-0.561284209901,-0.561284209901,-0.551079042448,-0.551079042448,-0.540873874995,-0.540873874995,-0.530668707542,-0.530668707542,-0.52046354009,-0.52046354009,-0.510258372637,-0.500053205184,-0.500053205184,-0.489848037732,-0.489848037732,-0.479642870279,-0.469437702826,-0.469437702826,-0.459232535373,-0.459232535373,-0.449027367921,-0.438822200468,-0.438822200468,-0.428617033015,-0.428617033015,-0.418411865562,-0.418411865562,-0.40820669811,-0.398001530657,-0.398001530657,-0.387796363204,-0.377591195751,-0.377591195751,-0.367386028299,-0.357180860846,-0.357180860846,-0.346975693393,-0.346975693393,-0.33677052594,-0.33677052594,-0.326565358488,-0.316360191035,-0.316360191035,-0.306155023582,-0.295949856129,-0.295949856129,-0.285744688677,-0.285744688677,-0.275539521224,-0.265334353771,-0.265334353771,-0.255129186318,-0.255129186318,-0.244924018866,-0.234718851413,-0.22451368396,-0.22451368396,-0.214308516508,-0.214308516508,-0.204103349055,-0.193898181602,-0.193898181602,-0.183693014149,-0.183693014149,-0.173487846697,-0.163282679244,-0.163282679244,-0.153077511791,-0.142872344338,-0.142872344338,-0.132667176886,-0.122462009433,-0.122462009433,-0.11225684198,-0.102051674527,-0.0918465070747,-0.0816413396219,-0.0816413396219,-0.0714361721692,-0.0612310047164,-0.0510258372637,-0.0510258372637,-0.040820669811,-0.040820669811,-0.0306155023582,-0.0204103349055,-0.0102051674527,-0.0102051674527,0.0,0.0102051674527,0.0102051674527,0.0204103349055,0.0306155023582,0.0306155023582,0.040820669811,0.0510258372637,0.0510258372637,0.0612310047164,0.0714361721692,0.0714361721692,0.0816413396219,0.0918465070747,0.0918465070747,0.102051674527,0.11225684198,0.122462009433,0.132667176886,0.132667176886,0.142872344338,0.153077511791,0.163282679244,0.163282679244,0.173487846697,0.183693014149,0.193898181602,0.193898181602,0.204103349055,0.214308516508,0.22451368396,0.234718851413,0.244924018866,0.255129186318,0.255129186318,0.265334353771,0.275539521224,0.285744688677,0.295949856129,0.306155023582,0.306155023582,0.316360191035,0.326565358488,0.326565358488,0.33677052594,0.346975693393,0.357180860846,0.357180860846,0.367386028299,0.377591195751,0.377591195751,0.387796363204,0.398001530657,0.40820669811,0.418411865562,0.428617033015,0.438822200468,0.449027367921,0.459232535373,0.469437702826,0.479642870279,0.479642870279,0.489848037732,0.500053205184,0.510258372637,0.52046354009,0.530668707542,0.540873874995,0.551079042448,0.561284209901,0.571489377353,0.571489377353,0.581694544806,0.591899712259,0.602104879712,0.602104879712,0.612310047164,0.622515214617,0.63272038207,0.642925549523,0.653130716975,0.663335884428,0.673541051881,0.693951386786,0.704156554239,0.714361721692,0.724566889145,0.724566889145,0.734772056597,0.74497722405,0.755182391503,0.765387558955,0.775592726408,0.785797893861,0.796003061314,0.806208228766,0.816413396219,0.826618563672,0.826618563672,0.836823731125,0.847028898577,0.85723406603,0.867439233483,0.877644400936,0.887849568388,0.898054735841,0.908259903294,0.918465070747,0.928670238199,0.938875405652,0.949080573105,0.96949090801,0.979696075463,0.989901242916,1.00010641037,1.01031157782,1.02051674527,1.03072191273,1.04092708018,1.05113224763,1.06133741508,1.07154258254,1.08174774999,1.09195291744,1.1021580849,1.11236325235,1.1225684198,1.13277358725,1.14297875471,1.15318392216,1.16338908961,1.17359425707,1.19400459197,1.20420975942,1.21441492688,1.22462009433,1.23482526178,1.24503042923,1.25523559669,1.28585109905,1.33687693631,1.37769760612,1.38790277357,0.0,0.0,0.0,0.0,0.0,0.0,0.0,0.0,0.0,0.0,0.0,0.0,0.0,0.0,0.0,0.0,0.0,0.0,0.0,0.0,0.0,0.0,0.0,0.0,0.0,0.0,0.0,0.0,0.0,0.0,0.0,0.0,0.0,0.0,0.0,0.0,0.0,0.0,0.0,0.0,0.0,0.0,0.0,0.0,0.0,0.0,0.0,0.0,0.0,0.0,0.0,0.0,0.0,0.0,0.0,0.0,0.0,0.0,0.0,0.0,0.0,0.0,0.0,0.0,0.0,0.0,0.0,0.0,0.0,0.0,0.0,0.0,0.0,0.0,0.0,0.0,0.0,0.0,0.0
0.0,0.0,0.0,0.0,0.0,0.0,0.0,0.0,0.0,0.0,0.0,0.0,0.0,0.0,0.0,0.0,0.0,0.0,0.0,0.0,0.0,0.0,0.0,0.0,0.0,0.0,0.0,0.0,0.0,0.0,0.0,0.0,0.0,0.0,0.0,0.0,0.0,0.0,0.0,0.0,0.0,0.0,0.0,0.0,0.0,0.0,0.0,0.0,0.0,0.0,0.0,0.0,0.0,0.0,0.0,0.0,0.0,0.0,0.0,0.0,0.0,0.0,0.0,0.0,0.0,0.0,0.0,0.0,0.0,0.0,0.0,0.0,0.0,0.0,0.0,0.0,0.0,0.0,0.0,0.0,0.0,0.0,0.0,0.0,-1.16338908961,-1.16338908961,-1.15318392216,-1.15318392216,-1.15318392216,-1.14297875471,-1.13277358725,-1.13277358725,-1.13277358725,-1.1225684198,-1.1225684198,-1.1225684198,-1.11236325235,-1.11236325235,-1.11236325235,-1.1021580849,-1.1021580849,-1.09195291744,-1.09195291744,-1.08174774999,-1.08174774999,-1.08174774999,-1.07154258254,-1.07154258254,-1.07154258254,-1.06133741508,-1.06133741508,-1.06133741508,-1.05113224763,-1.05113224763,-1.04092708018,-1.04092708018,-1.03072191273,-1.03072191273,-1.02051674527,-1.02051674527,-1.02051674527,-1.01031157782,-1.01031157782,-1.00010641037,-1.00010641037,-0.989901242916,-0.989901242916,-0.989901242916,-0.979696075463,-0.979696075463,-0.96949090801,-0.96949090801,-0.959285740558,-0.959285740558,-0.949080573105,-0.949080573105,-0.938875405652,-0.938875405652,-0.928670238199,-0.928670238199,-0.928670238199,-0.918465070747,-0.918465070747,-0.908259903294,-0.908259903294,-0.898054735841,-0.898054735841,-0.887849568388,-0.887849568388,-0.877644400936,-0.877644400936,-0.867439233483,-0.867439233483,-0.85723406603,-0.85723406603,-0.85723406603,-0.847028898577,-0.847028898577,-0.836823731125,-0.836823731125,-0.826618563672,-0.826618563672,-0.816413396219,-0.816413396219,-0.806208228766,-0.806208228766,-0.796003061314,-0.796003061314,-0.785797893861,-0.785797893861,-0.775592726408,-0.775592726408,-0.765387558955,-0.765387558955,-0.755182391503,-0.755182391503,-0.74497722405,-0.74497722405,-0.734772056597,-0.734772056597,-0.724566889145,-0.724566889145,-0.714361721692,-0.714361721692,-0.704156554239,-0.704156554239,-0.693951386786,-0.683746219334,-0.683746219334,-0.673541051881,-0.673541051881,-0.663335884428,-0.663335884428,-0.653130716975,-0.653130716975,-0.642925549523,-0.63272038207,-0.63272038207,-0.622515214617,-0.622515214617,-0.612310047164,-0.612310047164,-0.602104879712,-0.602104879712,-0.591899712259,-0.581694544806,-0.581694544806,-0.571489377353,-0.571489377353,-0.561284209901,-0.561284209901,-0.551079042448,-0.551079042448,-0.540873874995,-0.540873874995,-0.530668707542,-0.530668707542,-0.52046354009,-0.52046354009,-0.510258372637,-0.500053205184,-0.500053205184,-0.489848037732,-0.489848037732,-0.479642870279,-0.469437702826,-0.469437702826,-0.459232535373,-0.459232535373,-0.449027367921,-0.438822200468,-0.438822200468,-0.428617033015,-0.428617033015,-0.418411865562,-0.418411865562,-0.40820669811,-0.398001530657,-0.398001530657,-0.387796363204,-0.377591195751,-0.377591195751,-0.367386028299,-0.357180860846,-0.357180860846,-0.346975693393,-0.346975693393,-0.33677052594,-0.326565358488,-0.326565358488,-0.316360191035,-0.316360191035,-0.306155023582,-0.295949856129,-0.295949856129,-0.285744688677,-0.285744688677,-0.275539521224,-0.265334353771,-0.265334353771,-0.255129186318,-0.244924018866,-0.244924018866,-0.234718851413,-0.22451368396,-0.22451368396,-0.214308516508,-0.214308516508,-0.204103349055,-0.193898181602,-0.193898181602,-0.183693014149,-0.183693014149,-0.173487846697,-0.163282679244,-0.163282679244,-0.153077511791,-0.142872344338,-0.142872344338,-0.132667176886,-0.122462009433,-0.122462009433,-0.11225684198,-0.102051674527,-0.0918465070747,-0.0918465070747,-0.0816413396219,-0.0714361721692,-0.0612310047164,-0.0612310047164,-0.0510258372637,-0.040820669811,-0.040820669811,-0.0306155023582,-0.0204103349055,-0.0204103349055,-0.0102051674527,0.0,0.0102051674527,0.0102051674527,0.0204103349055,0.0306155023582,0.0306155023582,0.040820669811,0.0510258372637,0.0510258372637,0.0612310047164,0.0714361721692,0.0714361721692,0.0816413396219,0.0918465070747,0.0918465070747,0.102051674527,0.11225684198,0.122462009433,0.132667176886,0.132667176886,0.142872344338,0.153077511791,0.163282679244,0.163282679244,0.173487846697,0.183693014149,0.193898181602,0.193898181602,0.204103349055,0.214308516508,0.22451368396,0.234718851413,0.244924018866,0.244924018866,0.255129186318,0.265334353771,0.275539521224,0.285744688677,0.295949856129,0.306155023582,0.306155023582,0.316360191035,0.326565358488,0.33677052594,0.33677052594,0.346975693393,0.357180860846,0.357180860846,0.367386028299,0.377591195751,0.377591195751,0.387796363204,0.398001530657,0.40820669811,0.418411865562,0.428617033015,0.438822200468,0.449027367921,0.459232535373,0.469437702826,0.479642870279,0.479642870279,0.489848037732,0.500053205184,0.510258372637,0.52046354009,0.530668707542,0.540873874995,0.551079042448,0.561284209901,0.571489377353,0.571489377353,0.581694544806,0.591899712259,0.602104879712,0.602104879712,0.612310047164,0.622515214617,0.63272038207,0.642925549523,0.653130716975,0.663335884428,0.673541051881,0.683746219334,0.693951386786,0.714361721692,0.714361721692,0.724566889145,0.734772056597,0.74497722405,0.755182391503,0.765387558955,0.775592726408,0.785797893861,0.796003061314,0.806208228766,0.816413396219,0.826618563672,0.826618563672,0.836823731125,0.847028898577,0.85723406603,0.867439233483,0.877644400936,0.887849568388,0.898054735841,0.908259903294,0.918465070747,0.928670238199,0.938875405652,0.949080573105,0.96949090801,0.979696075463,0.989901242916,1.00010641037,1.01031157782,1.02051674527,1.03072191273,1.04092708018,1.05113224763,1.06133741508,1.08174774999,1.09195291744,1.1021580849,1.1021580849,1.11236325235,1.1225684198,1.13277358725,1.14297875471,1.15318392216,1.16338908961,1.17359425707,1.18379942452,1.20420975942,1.21441492688,1.22462009433,1.23482526178,1.24503042923,1.25523559669,1.28585109905,1.32667176886,1.37769760612,1.37769760612,0.0,0.0,0.0,0.0,0.0,0.0,0.0,0.0,0.0,0.0,0.0,0.0,0.0,0.0,0.0,0.0,0.0,0.0,0.0,0.0,0.0,0.0,0.0,0.0,0.0,0.0,0.0,0.0,0.0,0.0,0.0,0.0,0.0,0.0,0.0,0.0,0.0,0.0,0.0,0.0,0.0,0.0,0.0,0.0,0.0,0.0,0.0,0.0,0.0,0.0,0.0,0.0,0.0,0.0,0.0,0.0,0.0,0.0,0.0,0.0,0.0,0.0,0.0,0.0,0.0,0.0,0.0,0.0,0.0,0.0,0.0,0.0,0.0,0.0,0.0,0.0,0.0,0.0,0.0
0.0,0.0,0.0,0.0,0.0,0.0,0.0,0.0,0.0,0.0,0.0,0.0,0.0,0.0,0.0,0.0,0.0,0.0,0.0,0.0,0.0,0.0,0.0,0.0,0.0,0.0,0.0,0.0,0.0,0.0,0.0,0.0,0.0,0.0,0.0,0.0,0.0,0.0,0.0,0.0,0.0,0.0,0.0,0.0,0.0,0.0,0.0,0.0,0.0,0.0,0.0,0.0,0.0,0.0,0.0,0.0,0.0,0.0,0.0,0.0,0.0,0.0,0.0,0.0,0.0,0.0,0.0,0.0,0.0,0.0,0.0,0.0,0.0,0.0,0.0,0.0,0.0,0.0,0.0,0.0,0.0,0.0,0.0,0.0,0.0,0.0,0.0,0.0,0.0,0.0,-1.13277358725,-1.13277358725,-1.1225684198,-1.1225684198,-1.1225684198,-1.1225684198,-1.11236325235,-1.11236325235,-1.1021580849,-1.1021580849,-1.1021580849,-1.09195291744,-1.09195291744,-1.08174774999,-1.08174774999,-1.07154258254,-1.07154258254,-1.07154258254,-1.06133741508,-1.06133741508,-1.06133741508,-1.05113224763,-1.05113224763,-1.04092708018,-1.04092708018,-1.03072191273,-1.03072191273,-1.02051674527,-1.02051674527,-1.02051674527,-1.01031157782,-1.01031157782,-1.00010641037,-1.00010641037,-1.00010641037,-0.989901242916,-0.989901242916,-0.979696075463,-0.979696075463,-0.96949090801,-0.96949090801,-0.959285740558,-0.959285740558,-0.949080573105,-0.949080573105,-0.938875405652,-0.938875405652,-0.938875405652,-0.928670238199,-0.928670238199,-0.918465070747,-0.918465070747,-0.918465070747,-0.908259903294,-0.908259903294,-0.898054735841,-0.898054735841,-0.887849568388,-0.887849568388,-0.877644400936,-0.877644400936,-0.867439233483,-0.867439233483,-0.85723406603,-0.85723406603,-0.847028898577,-0.847028898577,-0.836823731125,-0.836823731125,-0.826618563672,-0.826618563672,-0.816413396219,-0.816413396219,-0.806208228766,-0.806208228766,-0.796003061314,-0.796003061314,-0.785797893861,-0.785797893861,-0.775592726408,-0.775592726408,-0.775592726408,-0.765387558955,-0.765387558955,-0.755182391503,-0.755182391503,-0.74497722405,-0.74497722405,-0.734772056597,-0.734772056597,-0.724566889145,-0.724566889145,-0.714361721692,-0.714361721692,-0.704156554239,-0.693951386786,-0.693951386786,-0.683746219334,-0.683746219334,-0.673541051881,-0.673541051881,-0.663335884428,-0.663335884428,-0.653130716975,-0.642925549523,-0.642925549523,-0.63272038207,-0.63272038207,-0.622515214617,-0.622515214617,-0.612310047164,-0.602104879712,-0.602104879712,-0.591899712259,-0.591899712259,-0.581694544806,-0.581694544806,-0.571489377353,-0.571489377353,-0.561284209901,-0.561284209901,-0.551079042448,-0.551079042448,-0.540873874995,-0.540873874995,-0.530668707542,-0.530668707542,-0.52046354009,-0.510258372637,-0.510258372637,-0.500053205184,-0.500053205184,-0.489848037732,-0.489848037732,-0.479642870279,-0.469437702826,-0.469437702826,-0.459232535373,-0.459232535373,-0.449027367921,-0.438822200468,-0.438822200468,-0.428617033015,-0.428617033015,-0.418411865562,-0.418411865562,-0.40820669811,-0.40820669811,-0.398001530657,-0.387796363204,-0.377591195751,-0.377591195751,-0.367386028299,-0.357180860846,-0.357180860846,-0.346975693393,-0.346975693393,-0.33677052594,-0.326565358488,-0.326565358488,-0.316360191035,-0.316360191035,-0.306155023582,-0.295949856129,-0.295949856129,-0.285744688677,-0.285744688677,-0.275539521224,-0.265334353771,-0.265334353771,-0.255129186318,-0.244924018866,-0.244924018866,-0.234718851413,-0.22451368396,-0.22451368396,-0.214308516508,-0.204103349055,-0.204103349055,-0.193898181602,-0.193898181602,-0.183693014149,-0.183693014149,-0.173487846697,-0.163282679244,-0.163282679244,-0.153077511791,-0.142872344338,-0.142872344338,-0.132667176886,-0.122462009433,-0.122462009433,-0.11225684198,-0.102051674527,-0.102051674527,-0.0918465070747,-0.0816413396219,-0.0714361721692,-0.0612310047164,-0.0612310047164,-0.0510258372637,-0.040820669811,-0.040820669811,-0.0306155023582,-0.0204103349055,-0.0204103349055,-0.0102051674527,0.0,0.0102051674527,0.0102051674527,0.0204103349055,0.0306155023582,0.0306155023582,0.040820669811,0.0510258372637,0.0510258372637,0.0612310047164,0.0714361721692,0.0714361721692,0.0816413396219,0.0918465070747,0.0918465070747,0.102051674527,0.11225684198,0.122462009433,0.132667176886,0.142872344338,0.142872344338,0.153077511791,0.163282679244,0.163282679244,0.173487846697,0.183693014149,0.193898181602,0.193898181602,0.204103349055,0.214308516508,0.22451368396,0.234718851413,0.244924018866,0.244924018866,0.255129186318,0.265334353771,0.275539521224,0.285744688677,0.285744688677,0.295949856129,0.306155023582,0.316360191035,0.326565358488,0.33677052594,0.33677052594,0.346975693393,0.357180860846,0.357180860846,0.367386028299,0.377591195751,0.377591195751,0.387796363204,0.398001530657,0.40820669811,0.418411865562,0.428617033015,0.438822200468,0.449027367921,0.459232535373,0.469437702826,0.479642870279,0.479642870279,0.489848037732,0.500053205184,0.510258372637,0.52046354009,0.530668707542,0.540873874995,0.551079042448,0.561284209901,0.571489377353,0.571489377353,0.581694544806,0.591899712259,0.591899712259,0.602104879712,0.612310047164,0.622515214617,0.63272038207,0.642925549523,0.653130716975,0.663335884428,0.673541051881,0.683746219334,0.693951386786,0.704156554239,0.714361721692,0.724566889145,0.734772056597,0.74497722405,0.755182391503,0.765387558955,0.775592726408,0.785797893861,0.796003061314,0.806208228766,0.816413396219,0.816413396219,0.826618563672,0.836823731125,0.847028898577,0.85723406603,0.867439233483,0.877644400936,0.887849568388,0.898054735841,0.908259903294,0.918465070747,0.928670238199,0.938875405652,0.959285740558,0.96949090801,0.979696075463,0.989901242916,1.00010641037,1.01031157782,1.02051674527,1.03072191273,1.04092708018,1.05113224763,1.07154258254,1.08174774999,1.09195291744,1.1021580849,1.11236325235,1.11236325235,1.1225684198,1.13277358725,1.14297875471,1.15318392216,1.16338908961,1.17359425707,1.19400459197,1.20420975942,1.21441492688,1.22462009433,1.23482526178,1.24503042923,1.25523559669,1.27564593159,1.32667176886,1.36749243867,1.37769760612,0.0,0.0,0.0,0.0,0.0,0.0,0.0,0.0,0.0,0.0,0.0,0.0,0.0,0.0,0.0,0.0,0.0,0.0,0.0,0.0,0.0,0.0,0.0,0.0,0.0,0.0,0.0,0.0,0.0,0.0,0.0,0.0,0.0,0.0,0.0,0.0,0.0,0.0,0.0,0.0,0.0,0.0,0.0,0.0,0.0,0.0,0.0,0.0,0.0,0.0,0.0,0.0,0.0,0.0,0.0,0.0,0.0,0.0,0.0,0.0,0.0,0.0,0.0,0.0,0.0,0.0,0.0,0.0,0.0,0.0,0.0,0.0,0.0,0.0,0.0,0.0,0.0,0.0,0.0
0.0,0.0,0.0,0.0,0.0,0.0,0.0,0.0,0.0,0.0,0.0,0.0,0.0,0.0,0.0,0.0,0.0,0.0,0.0,0.0,0.0,0.0,0.0,0.0,0.0,0.0,0.0,0.0,0.0,0.0,0.0,0.0,0.0,0.0,0.0,0.0,0.0,0.0,0.0,0.0,0.0,0.0,0.0,0.0,0.0,0.0,0.0,0.0,0.0,0.0,0.0,0.0,0.0,0.0,0.0,0.0,0.0,0.0,0.0,0.0,0.0,0.0,0.0,0.0,0.0,0.0,0.0,0.0,0.0,0.0,0.0,0.0,0.0,0.0,0.0,0.0,0.0,0.0,0.0,0.0,0.0,0.0,0.0,0.0,0.0,0.0,0.0,0.0,0.0,0.0,0.0,0.0,0.0,0.0,0.0,0.0,0.0,0.0,-1.1021580849,-1.1021580849,-1.09195291744,-1.09195291744,-1.08174774999,-1.08174774999,-1.08174774999,-1.07154258254,-1.07154258254,-1.07154258254,-1.06133741508,-1.06133741508,-1.06133741508,-1.05113224763,-1.04092708018,-1.04092708018,-1.03072191273,-1.03072191273,-1.03072191273,-1.02051674527,-1.02051674527,-1.01031157782,-1.01031157782,-1.01031157782,-1.00010641037,-1.00010641037,-0.989901242916,-0.989901242916,-0.979696075463,-0.979696075463,-0.979696075463,-0.96949090801,-0.96949090801,-0.959285740558,-0.959285740558,-0.949080573105,-0.949080573105,-0.938875405652,-0.938875405652,-0.928670238199,-0.928670238199,-0.928670238199,-0.918465070747,-0.918465070747,-0.908259903294,-0.908259903294,-0.908259903294,-0.898054735841,-0.898054735841,-0.887849568388,-0.877644400936,-0.877644400936,-0.867439233483,-0.867439233483,-0.85723406603,-0.85723406603,-0.85723406603,-0.847028898577,-0.847028898577,-0.836823731125,-0.836823731125,-0.826618563672,-0.826618563672,-0.816413396219,-0.816413396219,-0.806208228766,-0.806208228766,-0.796003061314,-0.796003061314,-0.785797893861,-0.785797893861,-0.775592726408,-0.775592726408,-0.765387558955,-0.765387558955,-0.755182391503,-0.755182391503,-0.755182391503,-0.74497722405,-0.74497722405,-0.734772056597,-0.734772056597,-0.724566889145,-0.724566889145,-0.714361721692,-0.714361721692,-0.704156554239,-0.693951386786,-0.693951386786,-0.683746219334,-0.683746219334,-0.673541051881,-0.673541051881,-0.663335884428,-0.653130716975,-0.653130716975,-0.642925549523,-0.642925549523,-0.63272038207,-0.63272038207,-0.622515214617,-0.612310047164,-0.612310047164,-0.602104879712,-0.602104879712,-0.591899712259,-0.591899712259,-0.581694544806,-0.581694544806,-0.571489377353,-0.571489377353,-0.561284209901,-0.561284209901,-0.551079042448,-0.551079042448,-0.540873874995,-0.540873874995,-0.530668707542,-0.52046354009,-0.52046354009,-0.510258372637,-0.510258372637,-0.500053205184,-0.500053205184,-0.489848037732,-0.479642870279,-0.479642870279,-0.469437702826,-0.469437702826,-0.459232535373,-0.459232535373,-0.449027367921,-0.438822200468,-0.438822200468,-0.428617033015,-0.428617033015,-0.418411865562,-0.418411865562,-0.40820669811,-0.40820669811,-0.398001530657,-0.387796363204,-0.377591195751,-0.377591195751,-0.367386028299,-0.357180860846,-0.357180860846,-0.346975693393,-0.346975693393,-0.33677052594,-0.326565358488,-0.326565358488,-0.316360191035,-0.316360191035,-0.306155023582,-0.295949856129,-0.295949856129,-0.285744688677,-0.285744688677,-0.275539521224,-0.265334353771,-0.265334353771,-0.255129186318,-0.244924018866,-0.244924018866,-0.234718851413,-0.22451368396,-0.22451368396,-0.214308516508,-0.204103349055,-0.204103349055,-0.193898181602,-0.193898181602,-0.183693014149,-0.183693014149,-0.173487846697,-0.163282679244,-0.163282679244,-0.153077511791,-0.142872344338,-0.142872344338,-0.132667176886,-0.122462009433,-0.122462009433,-0.11225684198,-0.102051674527,-0.102051674527,-0.0918465070747,-0.0816413396219,-0.0714361721692,-0.0612310047164,-0.0612310047164,-0.0510258372637,-0.040820669811,-0.040820669811,-0.0306155023582,-0.0204103349055,-0.0204103349055,-0.0102051674527,0.0,0.0102051674527,0.0102051674527,0.0204103349055,0.0306155023582,0.0306155023582,0.040820669811,0.0510258372637,0.0510258372637,0.0612310047164,0.0714361721692,0.0714361721692,0.0816413396219,0.0918465070747,0.0918465070747,0.102051674527,0.11225684198,0.122462009433,0.132667176886,0.142872344338,0.142872344338,0.153077511791,0.163282679244,0.163282679244,0.173487846697,0.183693014149,0.193898181602,0.193898181602,0.204103349055,0.214308516508,0.22451368396,0.234718851413,0.234718851413,0.244924018866,0.255129186318,0.265334353771,0.275539521224,0.285744688677,0.285744688677,0.295949856129,0.306155023582,0.316360191035,0.326565358488,0.33677052594,0.33677052594,0.346975693393,0.357180860846,0.357180860846,0.367386028299,0.377591195751,0.377591195751,0.387796363204,0.398001530657,0.40820669811,0.418411865562,0.428617033015,0.438822200468,0.449027367921,0.459232535373,0.469437702826,0.479642870279,0.479642870279,0.489848037732,0.500053205184,0.510258372637,0.52046354009,0.530668707542,0.540873874995,0.551079042448,0.561284209901,0.571489377353,0.571489377353,0.581694544806,0.591899712259,0.591899712259,0.602104879712,0.612310047164,0.622515214617,0.63272038207,0.642925549523,0.653130716975,0.663335884428,0.673541051881,0.683746219334,0.693951386786,0.704156554239,0.714361721692,0.724566889145,0.734772056597,0.74497722405,0.755182391503,0.765387558955,0.775592726408,0.785797893861,0.796003061314,0.796003061314,0.806208228766,0.816413396219,0.826618563672,0.836823731125,0.847028898577,0.85723406603,0.867439233483,0.877644400936,0.887849568388,0.898054735841,0.908259903294,0.918465070747,0.928670238199,0.938875405652,0.959285740558,0.96949090801,0.979696075463,0.989901242916,1.00010641037,1.01031157782,1.02051674527,1.03072191273,1.04092708018,1.06133741508,1.07154258254,1.08174774999,1.09195291744,1.1021580849,1.11236325235,1.1225684198,1.1225684198,1.13277358725,1.14297875471,1.15318392216,1.16338908961,1.17359425707,1.19400459197,1.20420975942,1.21441492688,1.22462009433,1.23482526178,1.24503042923,1.25523559669,1.27564593159,1.30626143395,1.32667176886,1.36749243867,0.0,0.0,0.0,0.0,0.0,0.0,0.0,0.0,0.0,0.0,0.0,0.0,0.0,0.0,0.0,0.0,0.0,0.0,0.0,0.0,0.0,0.0,0.0,0.0,0.0,0.0,0.0,0.0,0.0,0.0,0.0,0.0,0.0,0.0,0.0,0.0,0.0,0.0,0.0,0.0,0.0,0.0,0.0,0.0,0.0,0.0,0.0,0.0,0.0,0.0,0.0,0.0,0.0,0.0,0.0,0.0,0.0,0.0,0.0,0.0,0.0,0.0,0.0,0.0,0.0,0.0,0.0,0.0,0.0,0.0,0.0,0.0,0.0,0.0,0.0,0.0,0.0,0.0,0.0
0.0,0.0,0.0,0.0,0.0,0.0,0.0,0.0,0.0,0.0,0.0,0.0,0.0,0.0,0.0,0.0,0.0,0.0,0.0,0.0,0.0,0.0,0.0,0.0,0.0,0.0,0.0,0.0,0.0,0.0,0.0,0.0,0.0,0.0,0.0,0.0,0.0,0.0,0.0,0.0,0.0,0.0,0.0,0.0,0.0,0.0,0.0,0.0,0.0,0.0,0.0,0.0,0.0,0.0,0.0,0.0,0.0,0.0,0.0,0.0,0.0,0.0,0.0,0.0,0.0,0.0,0.0,0.0,0.0,0.0,0.0,0.0,0.0,0.0,0.0,0.0,0.0,0.0,0.0,0.0,0.0,0.0,0.0,0.0,0.0,0.0,0.0,0.0,0.0,0.0,0.0,0.0,0.0,0.0,0.0,0.0,0.0,0.0,0.0,0.0,0.0,0.0,0.0,0.0,-1.07154258254,-1.07154258254,-1.07154258254,-1.06133741508,-1.06133741508,-1.06133741508,-1.06133741508,-1.05113224763,-1.04092708018,-1.04092708018,-1.03072191273,-1.03072191273,-1.02051674527,-1.02051674527,-1.01031157782,-1.01031157782,-1.01031157782,-1.00010641037,-1.00010641037,-1.00010641037,-0.989901242916,-0.989901242916,-0.979696075463,-0.979696075463,-0.96949090801,-0.96949090801,-0.959285740558,-0.959285740558,-0.949080573105,-0.949080573105,-0.938875405652,-0.938875405652,-0.928670238199,-0.928670238199,-0.928670238199,-0.918465070747,-0.918465070747,-0.918465070747,-0.908259903294,-0.908259903294,-0.898054735841,-0.898054735841,-0.887849568388,-0.887849568388,-0.877644400936,-0.877644400936,-0.867439233483,-0.867439233483,-0.85723406603,-0.85723406603,-0.847028898577,-0.847028898577,-0.836823731125,-0.836823731125,-0.826618563672,-0.826618563672,-0.816413396219,-0.816413396219,-0.806208228766,-0.806208228766,-0.796003061314,-0.796003061314,-0.785797893861,-0.785797893861,-0.775592726408,-0.775592726408,-0.775592726408,-0.765387558955,-0.765387558955,-0.755182391503,-0.755182391503,-0.74497722405,-0.74497722405,-0.734772056597,-0.734772056597,-0.724566889145,-0.724566889145,-0.714361721692,-0.714361721692,-0.704156554239,-0.704156554239,-0.693951386786,-0.693951386786,-0.683746219334,-0.673541051881,-0.673541051881,-0.663335884428,-0.663335884428,-0.653130716975,-0.653130716975,-0.642925549523,-0.642925549523,-0.63272038207,-0.622515214617,-0.622515214617,-0.612310047164,-0.612310047164,-0.602104879712,-0.602104879712,-0.591899712259,-0.591899712259,-0.581694544806,-0.581694544806,-0.571489377353,-0.571489377353,-0.561284209901,-0.551079042448,-0.551079042448,-0.551079042448,-0.540873874995,-0.530668707542,-0.530668707542,-0.52046354009,-0.52046354009,-0.510258372637,-0.510258372637,-0.500053205184,-0.500053205184,-0.489848037732,-0.479642870279,-0.479642870279,-0.469437702826,-0.469437702826,-0.459232535373,-0.459232535373,-0.449027367921,-0.438822200468,-0.438822200468,-0.428617033015,-0.428617033015,-0.418411865562,-0.418411865562,-0.40820669811,-0.40820669811,-0.398001530657,-0.387796363204,-0.377591195751,-0.377591195751,-0.367386028299,-0.357180860846,-0.357180860846,-0.346975693393,-0.346975693393,-0.33677052594,-0.326565358488,-0.326565358488,-0.316360191035,-0.316360191035,-0.306155023582,-0.295949856129,-0.295949856129,-0.285744688677,-0.285744688677,-0.275539521224,-0.265334353771,-0.265334353771,-0.255129186318,-0.244924018866,-0.244924018866,-0.234718851413,-0.22451368396,-0.22451368396,-0.214308516508,-0.204103349055,-0.204103349055,-0.193898181602,-0.193898181602,-0.183693014149,-0.183693014149,-0.173487846697,-0.163282679244,-0.163282679244,-0.153077511791,-0.142872344338,-0.142872344338,-0.132667176886,-0.122462009433,-0.122462009433,-0.11225684198,-0.102051674527,-0.102051674527,-0.0918465070747,-0.0816413396219,-0.0714361721692,-0.0612310047164,-0.0612310047164,-0.0510258372637,-0.040820669811,-0.040820669811,-0.0306155023582,-0.0306155023582,-0.0204103349055,-0.0102051674527,0.0,0.0102051674527,0.0102051674527,0.0204103349055,0.0306155023582,0.0306155023582,0.040820669811,0.0510258372637,0.0510258372637,0.0612310047164,0.0714361721692,0.0714361721692,0.0816413396219,0.0918465070747,0.0918465070747,0.102051674527,0.11225684198,0.122462009433,0.132667176886,0.142872344338,0.142872344338,0.153077511791,0.163282679244,0.163282679244,0.173487846697,0.183693014149,0.183693014149,0.193898181602,0.204103349055,0.214308516508,0.22451368396,0.234718851413,0.234718851413,0.244924018866,0.255129186318,0.265334353771,0.275539521224,0.285744688677,0.285744688677,0.295949856129,0.306155023582,0.316360191035,0.326565358488,0.33677052594,0.33677052594,0.346975693393,0.357180860846,0.357180860846,0.367386028299,0.377591195751,0.387796363204,0.387796363204,0.398001530657,0.40820669811,0.418411865562,0.428617033015,0.438822200468,0.449027367921,0.459232535373,0.469437702826,0.479642870279,0.479642870279,0.489848037732,0.500053205184,0.510258372637,0.52046354009,0.530668707542,0.540873874995,0.551079042448,0.561284209901,0.561284209901,0.571489377353,0.581694544806,0.591899712259,0.591899712259,0.602104879712,0.612310047164,0.622515214617,0.63272038207,0.642925549523,0.653130716975,0.663335884428,0.673541051881,0.683746219334,0.693951386786,0.704156554239,0.714361721692,0.724566889145,0.734772056597,0.74497722405,0.755182391503,0.765387558955,0.775592726408,0.785797893861,0.796003061314,0.796003061314,0.806208228766,0.816413396219,0.826618563672,0.836823731125,0.847028898577,0.85723406603,0.867439233483,0.877644400936,0.887849568388,0.898054735841,0.908259903294,0.918465070747,0.928670238199,0.938875405652,0.949080573105,0.96949090801,0.979696075463,0.989901242916,1.00010641037,1.01031157782,1.02051674527,1.03072191273,1.04092708018,1.06133741508,1.07154258254,1.08174774999,1.09195291744,1.1021580849,1.11236325235,1.1225684198,1.13277358725,1.14297875471,1.15318392216,1.16338908961,1.17359425707,1.18379942452,1.19400459197,1.20420975942,1.21441492688,1.22462009433,1.23482526178,1.24503042923,1.25523559669,1.26544076414,1.28585109905,1.3164666014,1.32667176886,0.0,0.0,0.0,0.0,0.0,0.0,0.0,0.0,0.0,0.0,0.0,0.0,0.0,0.0,0.0,0.0,0.0,0.0,0.0,0.0,0.0,0.0,0.0,0.0,0.0,0.0,0.0,0.0,0.0,0.0,0.0,0.0,0.0,0.0,0.0,0.0,0.0,0.0,0.0,0.0,0.0,0.0,0.0,0.0,0.0,0.0,0.0,0.0,0.0,0.0,0.0,0.0,0.0,0.0,0.0,0.0,0.0,0.0,0.0,0.0,0.0,0.0,0.0,0.0,0.0,0.0,0.0,0.0,0.0,0.0,0.0,0.0,0.0,0.0,0.0,0.0,0.0,0.0,0.0
0.0,0.0,0.0,0.0,0.0,0.0,0.0,0.0,0.0,0.0,0.0,0.0,0.0,0.0,0.0,0.0,0.0,0.0,0.0,0.0,0.0,0.0,0.0,0.0,0.0,0.0,0.0,0.0,0.0,0.0,0.0,0.0,0.0,0.0,0.0,0.0,0.0,0.0,0.0,0.0,0.0,0.0,0.0,0.0,0.0,0.0,0.0,0.0,0.0,0.0,0.0,0.0,0.0,0.0,0.0,0.0,0.0,0.0,0.0,0.0,0.0,0.0,0.0,0.0,0.0,0.0,0.0,0.0,0.0,0.0,0.0,0.0,0.0,0.0,0.0,0.0,0.0,0.0,0.0,0.0,0.0,0.0,0.0,0.0,0.0,0.0,0.0,0.0,0.0,0.0,0.0,0.0,0.0,0.0,0.0,0.0,0.0,0.0,0.0,0.0,0.0,0.0,0.0,0.0,0.0,0.0,0.0,0.0,0.0,0.0,0.0,0.0,0.0,-1.03072191273,-1.03072191273,-1.02051674527,-1.02051674527,-1.02051674527,-1.01031157782,-1.01031157782,-1.01031157782,-1.00010641037,-1.00010641037,-0.989901242916,-0.989901242916,-0.979696075463,-0.979696075463,-0.96949090801,-0.96949090801,-0.96949090801,-0.959285740558,-0.959285740558,-0.949080573105,-0.949080573105,-0.938875405652,-0.938875405652,-0.928670238199,-0.928670238199,-0.918465070747,-0.918465070747,-0.918465070747,-0.908259903294,-0.908259903294,-0.898054735841,-0.898054735841,-0.898054735841,-0.887849568388,-0.887849568388,-0.877644400936,-0.867439233483,-0.867439233483,-0.867439233483,-0.85723406603,-0.85723406603,-0.847028898577,-0.847028898577,-0.836823731125,-0.836823731125,-0.826618563672,-0.826618563672,-0.816413396219,-0.816413396219,-0.806208228766,-0.806208228766,-0.796003061314,-0.796003061314,-0.785797893861,-0.785797893861,-0.775592726408,-0.775592726408,-0.765387558955,-0.765387558955,-0.755182391503,-0.755182391503,-0.755182391503,-0.74497722405,-0.74497722405,-0.734772056597,-0.734772056597,-0.724566889145,-0.724566889145,-0.714361721692,-0.714361721692,-0.704156554239,-0.704156554239,-0.693951386786,-0.683746219334,-0.683746219334,-0.673541051881,-0.673541051881,-0.663335884428,-0.663335884428,-0.653130716975,-0.653130716975,-0.642925549523,-0.63272038207,-0.63272038207,-0.622515214617,-0.622515214617,-0.612310047164,-0.612310047164,-0.602104879712,-0.602104879712,-0.591899712259,-0.591899712259,-0.581694544806,-0.581694544806,-0.571489377353,-0.561284209901,-0.561284209901,-0.551079042448,-0.551079042448,-0.540873874995,-0.540873874995,-0.530668707542,-0.530668707542,-0.52046354009,-0.52046354009,-0.510258372637,-0.510258372637,-0.500053205184,-0.489848037732,-0.489848037732,-0.479642870279,-0.479642870279,-0.469437702826,-0.469437702826,-0.459232535373,-0.459232535373,-0.449027367921,-0.438822200468,-0.438822200468,-0.428617033015,-0.428617033015,-0.418411865562,-0.418411865562,-0.40820669811,-0.40820669811,-0.398001530657,-0.387796363204,-0.377591195751,-0.377591195751,-0.367386028299,-0.357180860846,-0.357180860846,-0.346975693393,-0.346975693393,-0.33677052594,-0.326565358488,-0.326565358488,-0.316360191035,-0.306155023582,-0.306155023582,-0.295949856129,-0.295949856129,-0.285744688677,-0.285744688677,-0.275539521224,-0.265334353771,-0.265334353771,-0.255129186318,-0.244924018866,-0.244924018866,-0.234718851413,-0.22451368396,-0.22451368396,-0.214308516508,-0.204103349055,-0.204103349055,-0.193898181602,-0.193898181602,-0.183693014149,-0.173487846697,-0.173487846697,-0.163282679244,-0.163282679244,-0.153077511791,-0.142872344338,-0.142872344338,-0.132667176886,-0.122462009433,-0.122462009433,-0.11225684198,-0.102051674527,-0.0918465070747,-0.0918465070747,-0.0816413396219,-0.0714361721692,-0.0612310047164,-0.0612310047164,-0.0510258372637,-0.040820669811,-0.040820669811,-0.0306155023582,-0.0306155023582,-0.0204103349055,-0.0102051674527,0.0,0.0,0.0102051674527,0.0204103349055,0.0306155023582,0.0306155023582,0.040820669811,0.0510258372637,0.0510258372637,0.0612310047164,0.0714361721692,0.0714361721692,0.0816413396219,0.0918465070747,0.0918465070747,0.102051674527,0.11225684198,0.122462009433,0.132667176886,0.142872344338,0.142872344338,0.153077511791,0.163282679244,0.163282679244,0.173487846697,0.183693014149,0.183693014149,0.193898181602,0.204103349055,0.214308516508,0.22451368396,0.234718851413,0.234718851413,0.244924018866,0.255129186318,0.265334353771,0.275539521224,0.275539521224,0.285744688677,0.295949856129,0.306155023582,0.316360191035,0.326565358488,0.33677052594,0.33677052594,0.346975693393,0.357180860846,0.357180860846,0.367386028299,0.377591195751,0.387796363204,0.387796363204,0.398001530657,0.40820669811,0.418411865562,0.428617033015,0.438822200468,0.449027367921,0.459232535373,0.469437702826,0.479642870279,0.479642870279,0.489848037732,0.500053205184,0.510258372637,0.52046354009,0.530668707542,0.540873874995,0.551079042448,0.561284209901,0.561284209901,0.571489377353,0.581694544806,0.591899712259,0.591899712259,0.602104879712,0.612310047164,0.622515214617,0.63272038207,0.642925549523,0.653130716975,0.663335884428,0.673541051881,0.683746219334,0.693951386786,0.704156554239,0.714361721692,0.724566889145,0.734772056597,0.74497722405,0.755182391503,0.765387558955,0.775592726408,0.785797893861,0.796003061314,0.796003061314,0.806208228766,0.816413396219,0.826618563672,0.836823731125,0.847028898577,0.85723406603,0.867439233483,0.877644400936,0.887849568388,0.898054735841,0.908259903294,0.918465070747,0.928670238199,0.938875405652,0.949080573105,0.96949090801,0.979696075463,0.989901242916,1.00010641037,1.01031157782,1.02051674527,1.03072191273,1.04092708018,1.06133741508,1.07154258254,1.08174774999,1.09195291744,1.1021580849,1.11236325235,1.1225684198,1.13277358725,1.14297875471,1.15318392216,1.16338908961,1.17359425707,1.18379942452,1.19400459197,1.20420975942,1.21441492688,1.22462009433,1.23482526178,1.24503042923,1.25523559669,1.26544076414,1.27564593159,1.28585109905,1.30626143395,0.0,0.0,0.0,0.0,0.0,0.0,0.0,0.0,0.0,0.0,0.0,0.0,0.0,0.0,0.0,0.0,0.0,0.0,0.0,0.0,0.0,0.0,0.0,0.0,0.0,0.0,0.0,0.0,0.0,0.0,0.0,0.0,0.0,0.0,0.0,0.0,0.0,0.0,0.0,0.0,0.0,0.0,0.0,0.0,0.0,0.0,0.0,0.0,0.0,0.0,0.0,0.0,0.0,0.0,0.0,0.0,0.0,0.0,0.0,0.0,0.0,0.0,0.0,0.0,0.0,0.0,0.0,0.0,0.0,0.0,0.0,0.0,0.0,0.0,0.0,0.0,0.0,0.0,0.0
0.0,0.0,0.0,0.0,0.0,0.0,0.0,0.0,0.0,0.0,0.0,0.0,0.0,0.0,0.0,0.0,0.0,0.0,0.0,0.0,0.0,0.0,0.0,0.0,0.0,0.0,0.0,0.0,0.0,0.0,0.0,0.0,0.0,0.0,0.0,0.0,0.0,0.0,0.0,0.0,0.0,0.0,0.0,0.0,0.0,0.0,0.0,0.0,0.0,0.0,0.0,0.0,0.0,0.0,0.0,0.0,0.0,0.0,0.0,0.0,0.0,0.0,0.0,0.0,0.0,0.0,0.0,0.0,0.0,0.0,0.0,0.0,0.0,0.0,0.0,0.0,0.0,0.0,0.0,0.0,0.0,0.0,0.0,0.0,0.0,0.0,0.0,0.0,0.0,0.0,0.0,0.0,0.0,0.0,0.0,0.0,0.0,0.0,0.0,0.0,0.0,0.0,0.0,0.0,0.0,0.0,0.0,0.0,0.0,0.0,0.0,0.0,0.0,0.0,0.0,0.0,-1.02051674527,-1.01031157782,-1.01031157782,-1.01031157782,-1.00010641037,-1.00010641037,-1.00010641037,-0.989901242916,-0.989901242916,-0.979696075463,-0.979696075463,-0.96949090801,-0.96949090801,-0.96949090801,-0.959285740558,-0.949080573105,-0.949080573105,-0.938875405652,-0.938875405652,-0.928670238199,-0.928670238199,-0.928670238199,-0.918465070747,-0.918465070747,-0.918465070747,-0.908259903294,-0.908259903294,-0.898054735841,-0.898054735841,-0.887849568388,-0.887849568388,-0.877644400936,-0.877644400936,-0.867439233483,-0.867439233483,-0.85723406603,-0.85723406603,-0.847028898577,-0.847028898577,-0.836823731125,-0.836823731125,-0.826618563672,-0.826618563672,-0.816413396219,-0.816413396219,-0.806208228766,-0.806208228766,-0.796003061314,-0.796003061314,-0.785797893861,-0.785797893861,-0.775592726408,-0.775592726408,-0.775592726408,-0.765387558955,-0.765387558955,-0.755182391503,-0.755182391503,-0.74497722405,-0.74497722405,-0.734772056597,-0.734772056597,-0.724566889145,-0.724566889145,-0.714361721692,-0.714361721692,-0.704156554239,-0.704156554239,-0.693951386786,-0.693951386786,-0.683746219334,-0.683746219334,-0.673541051881,-0.673541051881,-0.663335884428,-0.653130716975,-0.653130716975,-0.642925549523,-0.642925549523,-0.63272038207,-0.63272038207,-0.622515214617,-0.622515214617,-0.612310047164,-0.612310047164,-0.602104879712,-0.602104879712,-0.591899712259,-0.581694544806,-0.581694544806,-0.571489377353,-0.571489377353,-0.561284209901,-0.561284209901,-0.551079042448,-0.551079042448,-0.540873874995,-0.540873874995,-0.530668707542,-0.530668707542,-0.52046354009,-0.52046354009,-0.510258372637,-0.500053205184,-0.500053205184,-0.489848037732,-0.489848037732,-0.479642870279,-0.479642870279,-0.469437702826,-0.469437702826,-0.459232535373,-0.449027367921,-0.449027367921,-0.438822200468,-0.438822200468,-0.428617033015,-0.428617033015,-0.418411865562,-0.418411865562,-0.40820669811,-0.40820669811,-0.398001530657,-0.387796363204,-0.377591195751,-0.377591195751,-0.367386028299,-0.357180860846,-0.357180860846,-0.346975693393,-0.346975693393,-0.33677052594,-0.326565358488,-0.326565358488,-0.316360191035,-0.306155023582,-0.306155023582,-0.295949856129,-0.295949856129,-0.285744688677,-0.275539521224,-0.275539521224,-0.265334353771,-0.265334353771,-0.255129186318,-0.255129186318,-0.244924018866,-0.234718851413,-0.234718851413,-0.22451368396,-0.214308516508,-0.204103349055,-0.204103349055,-0.193898181602,-0.193898181602,-0.183693014149,-0.173487846697,-0.173487846697,-0.163282679244,-0.163282679244,-0.153077511791,-0.142872344338,-0.142872344338,-0.132667176886,-0.122462009433,-0.122462009433,-0.11225684198,-0.102051674527,-0.0918465070747,-0.0918465070747,-0.0816413396219,-0.0714361721692,-0.0612310047164,-0.0612310047164,-0.0510258372637,-0.0510258372637,-0.040820669811,-0.0306155023582,-0.0306155023582,-0.0204103349055,-0.0102051674527,0.0,0.0,0.0102051674527,0.0204103349055,0.0306155023582,0.0306155023582,0.040820669811,0.0510258372637,0.0510258372637,0.0612310047164,0.0714361721692,0.0714361721692,0.0816413396219,0.0918465070747,0.0918465070747,0.102051674527,0.11225684198,0.122462009433,0.132667176886,0.142872344338,0.142872344338,0.153077511791,0.163282679244,0.163282679244,0.173487846697,0.183693014149,0.183693014149,0.193898181602,0.204103349055,0.214308516508,0.22451368396,0.234718851413,0.234718851413,0.244924018866,0.255129186318,0.265334353771,0.275539521224,0.275539521224,0.285744688677,0.295949856129,0.306155023582,0.316360191035,0.326565358488,0.33677052594,0.33677052594,0.346975693393,0.357180860846,0.357180860846,0.367386028299,0.377591195751,0.387796363204,0.387796363204,0.398001530657,0.40820669811,0.418411865562,0.428617033015,0.438822200468,0.449027367921,0.459232535373,0.469437702826,0.479642870279,0.479642870279,0.489848037732,0.500053205184,0.510258372637,0.52046354009,0.530668707542,0.540873874995,0.551079042448,0.551079042448,0.561284209901,0.571489377353,0.581694544806,0.581694544806,0.591899712259,0.602104879712,0.612310047164,0.622515214617,0.63272038207,0.642925549523,0.653130716975,0.663335884428,0.673541051881,0.673541051881,0.693951386786,0.704156554239,0.714361721692,0.724566889145,0.734772056597,0.74497722405,0.755182391503,0.765387558955,0.775592726408,0.785797893861,0.796003061314,0.796003061314,0.806208228766,0.816413396219,0.826618563672,0.836823731125,0.847028898577,0.85723406603,0.867439233483,0.877644400936,0.887849568388,0.898054735841,0.908259903294,0.918465070747,0.928670238199,0.938875405652,0.949080573105,0.959285740558,0.979696075463,0.979696075463,1.00010641037,1.01031157782,1.02051674527,1.03072191273,1.05113224763,1.06133741508,1.07154258254,1.08174774999,1.09195291744,1.1021580849,1.11236325235,1.1225684198,1.13277358725,1.14297875471,1.15318392216,1.16338908961,1.17359425707,1.18379942452,1.19400459197,1.20420975942,1.22462009433,1.23482526178,1.24503042923,1.25523559669,1.25523559669,1.26544076414,1.27564593159,1.28585109905,1.28585109905,0.0,0.0,0.0,0.0,0.0,0.0,0.0,0.0,0.0,0.0,0.0,0.0,0.0,0.0,0.0,0.0,0.0,0.0,0.0,0.0,0.0,0.0,0.0,0.0,0.0,0.0,0.0,0.0,0.0,0.0,0.0,0.0,0.0,0.0,0.0,0.0,0.0,0.0,0.0,0.0,0.0,0.0,0.0,0.0,0.0,0.0,0.0,0.0,0.0,0.0,0.0,0.0,0.0,0.0,0.0,0.0,0.0,0.0,0.0,0.0,0.0,0.0,0.0,0.0,0.0,0.0,0.0,0.0,0.0,0.0,0.0,0.0,0.0,0.0,0.0,0.0,0.0,0.0,0.0
0.0,0.0,0.0,0.0,0.0,0.0,0.0,0.0,0.0,0.0,0.0,0.0,0.0,0.0,0.0,0.0,0.0,0.0,0.0,0.0,0.0,0.0,0.0,0.0,0.0,0.0,0.0,0.0,0.0,0.0,0.0,0.0,0.0,0.0,0.0,0.0,0.0,0.0,0.0,0.0,0.0,0.0,0.0,0.0,0.0,0.0,0.0,0.0,0.0,0.0,0.0,0.0,0.0,0.0,0.0,0.0,0.0,0.0,0.0,0.0,0.0,0.0,0.0,0.0,0.0,0.0,0.0,0.0,0.0,0.0,0.0,0.0,0.0,0.0,0.0,0.0,0.0,0.0,0.0,0.0,0.0,0.0,0.0,0.0,0.0,0.0,0.0,0.0,0.0,0.0,0.0,0.0,0.0,0.0,0.0,0.0,0.0,0.0,0.0,0.0,0.0,0.0,0.0,0.0,0.0,0.0,0.0,0.0,0.0,0.0,0.0,0.0,0.0,0.0,0.0,0.0,0.0,0.0,0.0,0.0,0.0,0.0,0.0,0.0,-0.979696075463,-0.979696075463,-0.96949090801,-0.96949090801,-0.96949090801,-0.959285740558,-0.959285740558,-0.949080573105,-0.949080573105,-0.938875405652,-0.938875405652,-0.928670238199,-0.928670238199,-0.918465070747,-0.918465070747,-0.918465070747,-0.908259903294,-0.908259903294,-0.898054735841,-0.898054735841,-0.898054735841,-0.887849568388,-0.887849568388,-0.877644400936,-0.877644400936,-0.867439233483,-0.867439233483,-0.85723406603,-0.85723406603,-0.847028898577,-0.847028898577,-0.836823731125,-0.836823731125,-0.826618563672,-0.816413396219,-0.816413396219,-0.806208228766,-0.806208228766,-0.796003061314,-0.796003061314,-0.796003061314,-0.785797893861,-0.785797893861,-0.775592726408,-0.775592726408,-0.765387558955,-0.765387558955,-0.755182391503,-0.755182391503,-0.74497722405,-0.74497722405,-0.74497722405,-0.734772056597,-0.734772056597,-0.724566889145,-0.724566889145,-0.714361721692,-0.714361721692,-0.704156554239,-0.693951386786,-0.693951386786,-0.683746219334,-0.683746219334,-0.673541051881,-0.673541051881,-0.663335884428,-0.663335884428,-0.653130716975,-0.653130716975,-0.642925549523,-0.642925549523,-0.63272038207,-0.622515214617,-0.622515214617,-0.612310047164,-0.612310047164,-0.602104879712,-0.602104879712,-0.591899712259,-0.591899712259,-0.581694544806,-0.581694544806,-0.571489377353,-0.571489377353,-0.561284209901,-0.561284209901,-0.551079042448,-0.551079042448,-0.540873874995,-0.540873874995,-0.530668707542,-0.52046354009,-0.52046354009,-0.510258372637,-0.510258372637,-0.500053205184,-0.500053205184,-0.489848037732,-0.489848037732,-0.479642870279,-0.479642870279,-0.469437702826,-0.469437702826,-0.459232535373,-0.449027367921,-0.449027367921,-0.438822200468,-0.438822200468,-0.428617033015,-0.428617033015,-0.418411865562,-0.418411865562,-0.40820669811,-0.398001530657,-0.398001530657,-0.387796363204,-0.377591195751,-0.377591195751,-0.367386028299,-0.357180860846,-0.357180860846,-0.346975693393,-0.346975693393,-0.33677052594,-0.326565358488,-0.326565358488,-0.316360191035,-0.306155023582,-0.306155023582,-0.295949856129,-0.285744688677,-0.285744688677,-0.275539521224,-0.275539521224,-0.265334353771,-0.265334353771,-0.255129186318,-0.255129186318,-0.244924018866,-0.234718851413,-0.234718851413,-0.22451368396,-0.214308516508,-0.204103349055,-0.204103349055,-0.193898181602,-0.183693014149,-0.183693014149,-0.173487846697,-0.173487846697,-0.163282679244,-0.163282679244,-0.153077511791,-0.142872344338,-0.132667176886,-0.132667176886,-0.122462009433,-0.11225684198,-0.11225684198,-0.102051674527,-0.0918465070747,-0.0918465070747,-0.0816413396219,-0.0714361721692,-0.0612310047164,-0.0612310047164,-0.0510258372637,-0.0510258372637,-0.040820669811,-0.0306155023582,-0.0306155023582,-0.0204103349055,-0.0102051674527,0.0,0.0,0.0102051674527,0.0204103349055,0.0306155023582,0.0306155023582,0.040820669811,0.0510258372637,0.0510258372637,0.0612310047164,0.0714361721692,0.0714361721692,0.0816413396219,0.0918465070747,0.0918465070747,0.102051674527,0.11225684198,0.122462009433,0.132667176886,0.142872344338,0.142872344338,0.153077511791,0.163282679244,0.163282679244,0.173487846697,0.183693014149,0.193898181602,0.193898181602,0.204103349055,0.214308516508,0.22451368396,0.234718851413,0.234718851413,0.244924018866,0.255129186318,0.265334353771,0.265334353771,0.275539521224,0.285744688677,0.295949856129,0.306155023582,0.316360191035,0.326565358488,0.326565358488,0.33677052594,0.346975693393,0.357180860846,0.357180860846,0.367386028299,0.377591195751,0.387796363204,0.387796363204,0.398001530657,0.40820669811,0.418411865562,0.428617033015,0.438822200468,0.449027367921,0.459232535373,0.469437702826,0.479642870279,0.479642870279,0.489848037732,0.500053205184,0.510258372637,0.52046354009,0.530668707542,0.540873874995,0.551079042448,0.551079042448,0.561284209901,0.571489377353,0.581694544806,0.581694544806,0.591899712259,0.602104879712,0.612310047164,0.622515214617,0.63272038207,0.642925549523,0.653130716975,0.663335884428,0.673541051881,0.673541051881,0.683746219334,0.704156554239,0.714361721692,0.724566889145,0.734772056597,0.74497722405,0.755182391503,0.765387558955,0.775592726408,0.785797893861,0.796003061314,0.806208228766,0.816413396219,0.826618563672,0.826618563672,0.836823731125,0.847028898577,0.85723406603,0.867439233483,0.877644400936,0.887849568388,0.898054735841,0.908259903294,0.918465070747,0.928670238199,0.938875405652,0.949080573105,0.959285740558,0.979696075463,0.979696075463,1.00010641037,1.01031157782,1.02051674527,1.03072191273,1.05113224763,1.06133741508,1.07154258254,1.09195291744,1.1021580849,1.1021580849,1.11236325235,1.1225684198,1.13277358725,1.14297875471,1.15318392216,1.16338908961,1.17359425707,1.18379942452,1.19400459197,1.21441492688,1.22462009433,1.23482526178,1.24503042923,1.25523559669,1.26544076414,1.26544076414,1.27564593159,1.28585109905,0.0,0.0,0.0,0.0,0.0,0.0,0.0,0.0,0.0,0.0,0.0,0.0,0.0,0.0,0.0,0.0,0.0,0.0,0.0,0.0,0.0,0.0,0.0,0.0,0.0,0.0,0.0,0.0,0.0,0.0,0.0,0.0,0.0,0.0,0.0,0.0,0.0,0.0,0.0,0.0,0.0,0.0,0.0,0.0,0.0,0.0,0.0,0.0,0.0,0.0,0.0,0.0,0.0,0.0,0.0,0.0,0.0,0.0,0.0,0.0,0.0,0.0,0.0,0.0,0.0,0.0,0.0,0.0,0.0,0.0,0.0,0.0,0.0,0.0,0.0,0.0,0.0,0.0,0.0,0.0
0.0,0.0,0.0,0.0,0.0,0.0,0.0,0.0,0.0,0.0,0.0,0.0,0.0,0.0,0.0,0.0,0.0,0.0,0.0,0.0,0.0,0.0,0.0,0.0,0.0,0.0,0.0,0.0,0.0,0.0,0.0,0.0,0.0,0.0,0.0,0.0,0.0,0.0,0.0,0.0,0.0,0.0,0.0,0.0,0.0,0.0,0.0,0.0,0.0,0.0,0.0,0.0,0.0,0.0,0.0,0.0,0.0,0.0,0.0,0.0,0.0,0.0,0.0,0.0,0.0,0.0,0.0,0.0,0.0,0.0,0.0,0.0,0.0,0.0,0.0,0.0,0.0,0.0,0.0,0.0,0.0,0.0,0.0,0.0,0.0,0.0,0.0,0.0,0.0,0.0,0.0,0.0,0.0,0.0,0.0,0.0,0.0,0.0,0.0,0.0,0.0,0.0,0.0,0.0,0.0,0.0,0.0,0.0,0.0,0.0,0.0,0.0,0.0,0.0,0.0,0.0,0.0,0.0,0.0,0.0,0.0,0.0,0.0,0.0,0.0,0.0,0.0,0.0,0.0,0.0,0.0,0.0,-0.949080573105,-0.938875405652,-0.938875405652,-0.928670238199,-0.928670238199,-0.918465070747,-0.918465070747,-0.908259903294,-0.908259903294,-0.908259903294,-0.898054735841,-0.898054735841,-0.898054735841,-0.887849568388,-0.887849568388,-0.877644400936,-0.877644400936,-0.867439233483,-0.867439233483,-0.85723406603,-0.85723406603,-0.847028898577,-0.847028898577,-0.836823731125,-0.826618563672,-0.826618563672,-0.816413396219,-0.816413396219,-0.806208228766,-0.806208228766,-0.796003061314,-0.796003061314,-0.785797893861,-0.785797893861,-0.775592726408,-0.775592726408,-0.775592726408,-0.765387558955,-0.765387558955,-0.755182391503,-0.755182391503,-0.74497722405,-0.74497722405,-0.734772056597,-0.734772056597,-0.724566889145,-0.724566889145,-0.714361721692,-0.714361721692,-0.704156554239,-0.704156554239,-0.693951386786,-0.693951386786,-0.683746219334,-0.683746219334,-0.673541051881,-0.673541051881,-0.663335884428,-0.653130716975,-0.653130716975,-0.642925549523,-0.642925549523,-0.63272038207,-0.63272038207,-0.622515214617,-0.622515214617,-0.612310047164,-0.612310047164,-0.602104879712,-0.602104879712,-0.591899712259,-0.591899712259,-0.581694544806,-0.581694544806,-0.571489377353,-0.571489377353,-0.561284209901,-0.561284209901,-0.551079042448,-0.540873874995,-0.540873874995,-0.530668707542,-0.530668707542,-0.52046354009,-0.52046354009,-0.510258372637,-0.510258372637,-0.500053205184,-0.500053205184,-0.489848037732,-0.489848037732,-0.479642870279,-0.479642870279,-0.469437702826,-0.469437702826,-0.459232535373,-0.449027367921,-0.449027367921,-0.438822200468,-0.438822200468,-0.428617033015,-0.428617033015,-0.418411865562,-0.418411865562,-0.40820669811,-0.398001530657,-0.398001530657,-0.387796363204,-0.377591195751,-0.377591195751,-0.367386028299,-0.357180860846,-0.357180860846,-0.346975693393,-0.33677052594,-0.33677052594,-0.326565358488,-0.326565358488,-0.316360191035,-0.306155023582,-0.306155023582,-0.295949856129,-0.285744688677,-0.285744688677,-0.275539521224,-0.275539521224,-0.265334353771,-0.265334353771,-0.255129186318,-0.255129186318,-0.244924018866,-0.234718851413,-0.234718851413,-0.22451368396,-0.214308516508,-0.204103349055,-0.204103349055,-0.193898181602,-0.183693014149,-0.183693014149,-0.173487846697,-0.173487846697,-0.163282679244,-0.153077511791,-0.153077511791,-0.142872344338,-0.132667176886,-0.132667176886,-0.122462009433,-0.11225684198,-0.11225684198,-0.102051674527,-0.0918465070747,-0.0816413396219,-0.0816413396219,-0.0714361721692,-0.0612310047164,-0.0612310047164,-0.0510258372637,-0.0510258372637,-0.040820669811,-0.0306155023582,-0.0306155023582,-0.0204103349055,-0.0102051674527,0.0,0.0,0.0102051674527,0.0204103349055,0.0306155023582,0.0306155023582,0.040820669811,0.0510258372637,0.0510258372637,0.0612310047164,0.0714361721692,0.0714361721692,0.0816413396219,0.0918465070747,0.0918465070747,0.102051674527,0.11225684198,0.122462009433,0.132667176886,0.142872344338,0.142872344338,0.153077511791,0.163282679244,0.173487846697,0.173487846697,0.183693014149,0.193898181602,0.193898181602,0.204103349055,0.214308516508,0.22451368396,0.234718851413,0.234718851413,0.244924018866,0.255129186318,0.265334353771,0.265334353771,0.275539521224,0.285744688677,0.295949856129,0.306155023582,0.316360191035,0.316360191035,0.326565358488,0.33677052594,0.346975693393,0.357180860846,0.357180860846,0.367386028299,0.377591195751,0.387796363204,0.387796363204,0.398001530657,0.40820669811,0.418411865562,0.428617033015,0.438822200468,0.449027367921,0.459232535373,0.469437702826,0.479642870279,0.479642870279,0.489848037732,0.500053205184,0.510258372637,0.52046354009,0.530668707542,0.540873874995,0.540873874995,0.551079042448,0.561284209901,0.571489377353,0.581694544806,0.591899712259,0.591899712259,0.602104879712,0.612310047164,0.622515214617,0.63272038207,0.642925549523,0.653130716975,0.663335884428,0.663335884428,0.673541051881,0.683746219334,0.693951386786,0.714361721692,0.724566889145,0.734772056597,0.74497722405,0.755182391503,0.765387558955,0.775592726408,0.785797893861,0.796003061314,0.806208228766,0.816413396219,0.826618563672,0.836823731125,0.847028898577,0.85723406603,0.85723406603,0.867439233483,0.877644400936,0.887849568388,0.898054735841,0.908259903294,0.918465070747,0.928670238199,0.949080573105,0.949080573105,0.959285740558,0.979696075463,0.979696075463,1.00010641037,1.01031157782,1.02051674527,1.03072191273,1.05113224763,1.06133741508,1.08174774999,1.09195291744,1.1021580849,1.11236325235,1.11236325235,1.1225684198,1.13277358725,1.14297875471,1.15318392216,1.16338908961,1.17359425707,1.18379942452,1.20420975942,1.21441492688,1.22462009433,1.23482526178,1.24503042923,1.25523559669,1.26544076414,1.27564593159,1.27564593159,0.0,0.0,0.0,0.0,0.0,0.0,0.0,0.0,0.0,0.0,0.0,0.0,0.0,0.0,0.0,0.0,0.0,0.0,0.0,0.0,0.0,0.0,0.0,0.0,0.0,0.0,0.0,0.0,0.0,0.0,0.0,0.0,0.0,0.0,0.0,0.0,0.0,0.0,0.0,0.0,0.0,0.0,0.0,0.0,0.0,0.0,0.0,0.0,0.0,0.0,0.0,0.0,0.0,0.0,0.0,0.0,0.0,0.0,0.0,0.0,0.0,0.0,0.0,0.0,0.0,0.0,0.0,0.0,0.0,0.0,0.0,0.0,0.0,0.0,0.0,0.0,0.0,0.0,0.0,0.0,0.0
0.0,0.0,0.0,0.0,0.0,0.0,0.0,0.0,0.0,0.0,0.0,0.0,0.0,0.0,0.0,0.0,0.0,0.0,0.0,0.0,0.0,0.0,0.0,0.0,0.0,0.0,0.0,0.0,0.0,0.0,0.0,0.0,0.0,0.0,0.0,0.0,0.0,0.0,0.0,0.0,0.0,0.0,0.0,0.0,0.0,0.0,0.0,0.0,0.0,0.0,0.0,0.0,0.0,0.0,0.0,0.0,0.0,0.0,0.0,0.0,0.0,0.0,0.0,0.0,0.0,0.0,0.0,0.0,0.0,0.0,0.0,0.0,0.0,0.0,0.0,0.0,0.0,0.0,0.0,0.0,0.0,0.0,0.0,0.0,0.0,0.0,0.0,0.0,0.0,0.0,0.0,0.0,0.0,0.0,0.0,0.0,0.0,0.0,0.0,0.0,0.0,0.0,0.0,0.0,0.0,0.0,0.0,0.0,0.0,0.0,0.0,0.0,0.0,0.0,0.0,0.0,0.0,0.0,0.0,0.0,0.0,0.0,0.0,0.0,0.0,0.0,0.0,0.0,0.0,0.0,0.0,0.0,0.0,0.0,0.0,0.0,0.0,0.0,0.0,0.0,-0.908259903294,-0.908259903294,-0.898054735841,-0.898054735841,-0.887849568388,-0.887849568388,-0.877644400936,-0.877644400936,-0.867439233483,-0.867439233483,-0.85723406603,-0.85723406603,-0.847028898577,-0.847028898577,-0.836823731125,-0.836823731125,-0.826618563672,-0.826618563672,-0.816413396219,-0.806208228766,-0.806208228766,-0.796003061314,-0.796003061314,-0.796003061314,-0.785797893861,-0.785797893861,-0.775592726408,-0.775592726408,-0.765387558955,-0.765387558955,-0.755182391503,-0.755182391503,-0.74497722405,-0.74497722405,-0.734772056597,-0.734772056597,-0.724566889145,-0.724566889145,-0.714361721692,-0.714361721692,-0.704156554239,-0.704156554239,-0.693951386786,-0.693951386786,-0.683746219334,-0.683746219334,-0.673541051881,-0.673541051881,-0.663335884428,-0.663335884428,-0.653130716975,-0.653130716975,-0.642925549523,-0.63272038207,-0.63272038207,-0.622515214617,-0.622515214617,-0.612310047164,-0.612310047164,-0.602104879712,-0.602104879712,-0.591899712259,-0.591899712259,-0.581694544806,-0.581694544806,-0.571489377353,-0.571489377353,-0.561284209901,-0.561284209901,-0.551079042448,-0.551079042448,-0.540873874995,-0.540873874995,-0.530668707542,-0.530668707542,-0.52046354009,-0.52046354009,-0.510258372637,-0.510258372637,-0.500053205184,-0.500053205184,-0.489848037732,-0.489848037732,-0.479642870279,-0.469437702826,-0.469437702826,-0.459232535373,-0.459232535373,-0.449027367921,-0.449027367921,-0.438822200468,-0.428617033015,-0.428617033015,-0.418411865562,-0.418411865562,-0.40820669811,-0.40820669811,-0.398001530657,-0.398001530657,-0.387796363204,-0.377591195751,-0.377591195751,-0.367386028299,-0.357180860846,-0.357180860846,-0.346975693393,-0.33677052594,-0.33677052594,-0.326565358488,-0.316360191035,-0.316360191035,-0.306155023582,-0.295949856129,-0.295949856129,-0.285744688677,-0.285744688677,-0.275539521224,-0.275539521224,-0.265334353771,-0.265334353771,-0.255129186318,-0.255129186318,-0.244924018866,-0.234718851413,-0.234718851413,-0.22451368396,-0.214308516508,-0.204103349055,-0.204103349055,-0.193898181602,-0.183693014149,-0.183693014149,-0.173487846697,-0.173487846697,-0.163282679244,-0.153077511791,-0.153077511791,-0.142872344338,-0.132667176886,-0.132667176886,-0.122462009433,-0.11225684198,-0.11225684198,-0.102051674527,-0.0918465070747,-0.0816413396219,-0.0816413396219,-0.0714361721692,-0.0612310047164,-0.0612310047164,-0.0510258372637,-0.0510258372637,-0.040820669811,-0.0306155023582,-0.0306155023582,-0.0204103349055,-0.0102051674527,0.0,0.0,0.0102051674527,0.0204103349055,0.0306155023582,0.0306155023582,0.040820669811,0.0510258372637,0.0510258372637,0.0612310047164,0.0714361721692,0.0714361721692,0.0816413396219,0.0918465070747,0.0918465070747,0.102051674527,0.11225684198,0.122462009433,0.132667176886,0.142872344338,0.142872344338,0.153077511791,0.163282679244,0.173487846697,0.173487846697,0.183693014149,0.193898181602,0.193898181602,0.204103349055,0.214308516508,0.22451368396,0.234718851413,0.234718851413,0.244924018866,0.255129186318,0.255129186318,0.265334353771,0.275539521224,0.285744688677,0.295949856129,0.306155023582,0.306155023582,0.316360191035,0.326565358488,0.33677052594,0.346975693393,0.357180860846,0.357180860846,0.367386028299,0.377591195751,0.387796363204,0.387796363204,0.398001530657,0.40820669811,0.418411865562,0.428617033015,0.438822200468,0.449027367921,0.459232535373,0.459232535373,0.469437702826,0.479642870279,0.489848037732,0.500053205184,0.510258372637,0.52046354009,0.530668707542,0.540873874995,0.540873874995,0.551079042448,0.561284209901,0.571489377353,0.581694544806,0.591899712259,0.591899712259,0.602104879712,0.612310047164,0.622515214617,0.63272038207,0.642925549523,0.653130716975,0.663335884428,0.673541051881,0.673541051881,0.683746219334,0.693951386786,0.704156554239,0.724566889145,0.734772056597,0.74497722405,0.755182391503,0.765387558955,0.775592726408,0.785797893861,0.796003061314,0.806208228766,0.816413396219,0.826618563672,0.836823731125,0.847028898577,0.85723406603,0.85723406603,0.867439233483,0.877644400936,0.887849568388,0.898054735841,0.908259903294,0.918465070747,0.938875405652,0.949080573105,0.959285740558,0.96949090801,0.979696075463,0.989901242916,1.00010641037,1.01031157782,1.02051674527,1.04092708018,1.05113224763,1.06133741508,1.08174774999,1.09195291744,1.1021580849,1.11236325235,1.1225684198,1.1225684198,1.13277358725,1.14297875471,1.15318392216,1.16338908961,1.17359425707,1.19400459197,1.20420975942,1.21441492688,1.22462009433,1.24503042923,1.25523559669,1.26544076414,1.27564593159,1.27564593159,1.28585109905,0.0,0.0,0.0,0.0,0.0,0.0,0.0,0.0,0.0,0.0,0.0,0.0,0.0,0.0,0.0,0.0,0.0,0.0,0.0,0.0,0.0,0.0,0.0,0.0,0.0,0.0,0.0,0.0,0.0,0.0,0.0,0.0,0.0,0.0,0.0,0.0,0.0,0.0,0.0,0.0,0.0,0.0,0.0,0.0,0.0,0.0,0.0,0.0,0.0,0.0,0.0,0.0,0.0,0.0,0.0,0.0,0.0,0.0,0.0,0.0,0.0,0.0,0.0,0.0,0.0,0.0,0.0,0.0,0.0,0.0,0.0,0.0,0.0,0.0,0.0,0.0,0.0,0.0,0.0,0.0,0.0
0.0,0.0,0.0,0.0,0.0,0.0,0.0,0.0,0.0,0.0,0.0,0.0,0.0,0.0,0.0,0.0,0.0,0.0,0.0,0.0,0.0,0.0,0.0,0.0,0.0,0.0,0.0,0.0,0.0,0.0,0.0,0.0,0.0,0.0,0.0,0.0,0.0,0.0,0.0,0.0,0.0,0.0,0.0,0.0,0.0,0.0,0.0,0.0,0.0,0.0,0.0,0.0,0.0,0.0,0.0,0.0,0.0,0.0,0.0,0.0,0.0,0.0,0.0,0.0,0.0,0.0,0.0,0.0,0.0,0.0,0.0,0.0,0.0,0.0,0.0,0.0,0.0,0.0,0.0,0.0,0.0,0.0,0.0,0.0,0.0,0.0,0.0,0.0,0.0,0.0,0.0,0.0,0.0,0.0,0.0,0.0,0.0,0.0,0.0,0.0,0.0,0.0,0.0,0.0,0.0,0.0,0.0,0.0,0.0,0.0,0.0,0.0,0.0,0.0,0.0,0.0,0.0,0.0,0.0,0.0,0.0,0.0,0.0,0.0,0.0,0.0,0.0,0.0,0.0,0.0,0.0,0.0,0.0,0.0,0.0,0.0,0.0,0.0,0.0,0.0,0.0,0.0,0.0,0.0,-0.887849568388,-0.887849568388,-0.877644400936,-0.877644400936,-0.867439233483,-0.867439233483,-0.85723406603,-0.85723406603,-0.847028898577,-0.847028898577,-0.836823731125,-0.836823731125,-0.826618563672,-0.816413396219,-0.816413396219,-0.806208228766,-0.806208228766,-0.796003061314,-0.796003061314,-0.785797893861,-0.785797893861,-0.775592726408,-0.775592726408,-0.775592726408,-0.765387558955,-0.755182391503,-0.755182391503,-0.755182391503,-0.74497722405,-0.74497722405,-0.734772056597,-0.734772056597,-0.724566889145,-0.724566889145,-0.714361721692,-0.704156554239,-0.704156554239,-0.693951386786,-0.693951386786,-0.693951386786,-0.683746219334,-0.683746219334,-0.673541051881,-0.673541051881,-0.663335884428,-0.653130716975,-0.653130716975,-0.642925549523,-0.642925549523,-0.63272038207,-0.63272038207,-0.622515214617,-0.622515214617,-0.612310047164,-0.612310047164,-0.602104879712,-0.602104879712,-0.591899712259,-0.591899712259,-0.581694544806,-0.581694544806,-0.571489377353,-0.571489377353,-0.561284209901,-0.561284209901,-0.551079042448,-0.551079042448,-0.540873874995,-0.530668707542,-0.530668707542,-0.52046354009,-0.52046354009,-0.510258372637,-0.510258372637,-0.500053205184,-0.500053205184,-0.489848037732,-0.489848037732,-0.479642870279,-0.479642870279,-0.469437702826,-0.469437702826,-0.459232535373,-0.459232535373,-0.449027367921,-0.438822200468,-0.438822200468,-0.428617033015,-0.428617033015,-0.418411865562,-0.418411865562,-0.40820669811,-0.40820669811,-0.398001530657,-0.387796363204,-0.387796363204,-0.377591195751,-0.367386028299,-0.367386028299,-0.357180860846,-0.357180860846,-0.346975693393,-0.33677052594,-0.33677052594,-0.326565358488,-0.316360191035,-0.316360191035,-0.306155023582,-0.295949856129,-0.295949856129,-0.285744688677,-0.285744688677,-0.275539521224,-0.275539521224,-0.265334353771,-0.265334353771,-0.255129186318,-0.255129186318,-0.244924018866,-0.234718851413,-0.234718851413,-0.22451368396,-0.214308516508,-0.204103349055,-0.204103349055,-0.193898181602,-0.183693014149,-0.183693014149,-0.173487846697,-0.163282679244,-0.163282679244,-0.153077511791,-0.153077511791,-0.142872344338,-0.132667176886,-0.132667176886,-0.122462009433,-0.11225684198,-0.11225684198,-0.102051674527,-0.0918465070747,-0.0816413396219,-0.0816413396219,-0.0714361721692,-0.0612310047164,-0.0612310047164,-0.0510258372637,-0.0510258372637,-0.040820669811,-0.0306155023582,-0.0306155023582,-0.0204103349055,-0.0102051674527,0.0,0.0,0.0102051674527,0.0204103349055,0.0306155023582,0.0306155023582,0.040820669811,0.0510258372637,0.0510258372637,0.0612310047164,0.0714361721692,0.0714361721692,0.0816413396219,0.0918465070747,0.0918465070747,0.102051674527,0.11225684198,0.122462009433,0.132667176886,0.142872344338,0.142872344338,0.153077511791,0.163282679244,0.173487846697,0.173487846697,0.183693014149,0.193898181602,0.193898181602,0.204103349055,0.214308516508,0.22451368396,0.234718851413,0.234718851413,0.244924018866,0.255129186318,0.255129186318,0.265334353771,0.275539521224,0.285744688677,0.295949856129,0.295949856129,0.306155023582,0.316360191035,0.326565358488,0.33677052594,0.346975693393,0.357180860846,0.357180860846,0.367386028299,0.377591195751,0.387796363204,0.387796363204,0.398001530657,0.40820669811,0.418411865562,0.428617033015,0.438822200468,0.449027367921,0.459232535373,0.459232535373,0.469437702826,0.479642870279,0.489848037732,0.500053205184,0.510258372637,0.52046354009,0.530668707542,0.540873874995,0.540873874995,0.551079042448,0.561284209901,0.571489377353,0.581694544806,0.591899712259,0.602104879712,0.602104879712,0.612310047164,0.622515214617,0.63272038207,0.642925549523,0.653130716975,0.663335884428,0.673541051881,0.673541051881,0.683746219334,0.693951386786,0.704156554239,0.724566889145,0.734772056597,0.74497722405,0.755182391503,0.765387558955,0.775592726408,0.785797893861,0.796003061314,0.806208228766,0.816413396219,0.826618563672,0.836823731125,0.847028898577,0.85723406603,0.85723406603,0.867439233483,0.877644400936,0.887849568388,0.898054735841,0.908259903294,0.918465070747,0.938875405652,0.949080573105,0.959285740558,0.96949090801,0.979696075463,0.989901242916,1.00010641037,1.01031157782,1.02051674527,1.04092708018,1.05113224763,1.06133741508,1.08174774999,1.09195291744,1.1021580849,1.11236325235,1.1225684198,1.1225684198,1.13277358725,1.14297875471,1.15318392216,1.16338908961,1.17359425707,1.19400459197,1.20420975942,1.21441492688,1.23482526178,1.24503042923,1.25523559669,1.26544076414,1.27564593159,1.28585109905,1.28585109905,0.0,0.0,0.0,0.0,0.0,0.0,0.0,0.0,0.0,0.0,0.0,0.0,0.0,0.0,0.0,0.0,0.0,0.0,0.0,0.0,0.0,0.0,0.0,0.0,0.0,0.0,0.0,0.0,0.0,0.0,0.0,0.0,0.0,0.0,0.0,0.0,0.0,0.0,0.0,0.0,0.0,0.0,0.0,0.0,0.0,0.0,0.0,0.0,0.0,0.0,0.0,0.0,0.0,0.0,0.0,0.0,0.0,0.0,0.0,0.0,0.0,0.0,0.0,0.0,0.0,0.0,0.0,0.0,0.0,0.0,0.0,0.0,0.0,0.0,0.0,0.0,0.0,0.0,0.0,0.0,0.0
0.0,0.0,0.0,0.0,0.0,0.0,0.0,0.0,0.0,0.0,0.0,0.0,0.0,0.0,0.0,0.0,0.0,0.0,0.0,0.0,0.0,0.0,0.0,0.0,0.0,0.0,0.0,0.0,0.0,0.0,0.0,0.0,0.0,0.0,0.0,0.0,0.0,0.0,0.0,0.0,0.0,0.0,0.0,0.0,0.0,0.0,0.0,0.0,0.0,0.0,0.0,0.0,0.0,0.0,0.0,0.0,0.0,0.0,0.0,0.0,0.0,0.0,0.0,0.0,0.0,0.0,0.0,0.0,0.0,0.0,0.0,0.0,0.0,0.0,0.0,0.0,0.0,0.0,0.0,0.0,0.0,0.0,0.0,0.0,0.0,0.0,0.0,0.0,0.0,0.0,0.0,0.0,0.0,0.0,0.0,0.0,0.0,0.0,0.0,0.0,0.0,0.0,0.0,0.0,0.0,0.0,0.0,0.0,0.0,0.0,0.0,0.0,0.0,0.0,0.0,0.0,0.0,0.0,0.0,0.0,0.0,0.0,0.0,0.0,0.0,0.0,0.0,0.0,0.0,0.0,0.0,0.0,0.0,0.0,0.0,0.0,0.0,0.0,0.0,0.0,0.0,0.0,0.0,0.0,0.0,0.0,0.0,0.0,0.0,0.0,0.0,0.0,0.0,0.0,0.0,0.0,-0.826618563672,-0.816413396219,-0.816413396219,-0.806208228766,-0.806208228766,-0.796003061314,-0.796003061314,-0.785797893861,-0.785797893861,-0.775592726408,-0.775592726408,-0.765387558955,-0.765387558955,-0.755182391503,-0.755182391503,-0.74497722405,-0.74497722405,-0.734772056597,-0.734772056597,-0.724566889145,-0.724566889145,-0.714361721692,-0.714361721692,-0.704156554239,-0.704156554239,-0.693951386786,-0.693951386786,-0.683746219334,-0.683746219334,-0.673541051881,-0.673541051881,-0.663335884428,-0.663335884428,-0.653130716975,-0.642925549523,-0.642925549523,-0.63272038207,-0.63272038207,-0.622515214617,-0.622515214617,-0.612310047164,-0.612310047164,-0.602104879712,-0.602104879712,-0.591899712259,-0.591899712259,-0.581694544806,-0.581694544806,-0.571489377353,-0.571489377353,-0.561284209901,-0.561284209901,-0.551079042448,-0.551079042448,-0.540873874995,-0.540873874995,-0.530668707542,-0.530668707542,-0.52046354009,-0.52046354009,-0.510258372637,-0.510258372637,-0.500053205184,-0.500053205184,-0.489848037732,-0.489848037732,-0.479642870279,-0.479642870279,-0.469437702826,-0.459232535373,-0.459232535373,-0.449027367921,-0.449027367921,-0.438822200468,-0.438822200468,-0.428617033015,-0.428617033015,-0.418411865562,-0.40820669811,-0.40820669811,-0.398001530657,-0.398001530657,-0.387796363204,-0.387796363204,-0.377591195751,-0.367386028299,-0.367386028299,-0.357180860846,-0.346975693393,-0.346975693393,-0.33677052594,-0.326565358488,-0.326565358488,-0.316360191035,-0.316360191035,-0.306155023582,-0.295949856129,-0.295949856129,-0.285744688677,-0.285744688677,-0.275539521224,-0.275539521224,-0.265334353771,-0.265334353771,-0.255129186318,-0.255129186318,-0.244924018866,-0.234718851413,-0.234718851413,-0.22451368396,-0.214308516508,-0.204103349055,-0.193898181602,-0.193898181602,-0.183693014149,-0.173487846697,-0.173487846697,-0.163282679244,-0.163282679244,-0.153077511791,-0.142872344338,-0.142872344338,-0.132667176886,-0.132667176886,-0.122462009433,-0.11225684198,-0.11225684198,-0.102051674527,-0.0918465070747,-0.0816413396219,-0.0816413396219,-0.0714361721692,-0.0612310047164,-0.0612310047164,-0.0510258372637,-0.040820669811,-0.040820669811,-0.0306155023582,-0.0204103349055,-0.0204103349055,-0.0102051674527,0.0,0.0,0.0102051674527,0.0204103349055,0.0306155023582,0.0306155023582,0.040820669811,0.0510258372637,0.0510258372637,0.0612310047164,0.0714361721692,0.0714361721692,0.0816413396219,0.0918465070747,0.0918465070747,0.102051674527,0.11225684198,0.122462009433,0.132667176886,0.142872344338,0.142872344338,0.153077511791,0.163282679244,0.173487846697,0.173487846697,0.183693014149,0.193898181602,0.193898181602,0.204103349055,0.214308516508,0.22451368396,0.234718851413,0.234718851413,0.244924018866,0.255129186318,0.255129186318,0.265334353771,0.275539521224,0.275539521224,0.285744688677,0.295949856129,0.306155023582,0.316360191035,0.326565358488,0.33677052594,0.346975693393,0.357180860846,0.357180860846,0.367386028299,0.377591195751,0.387796363204,0.387796363204,0.398001530657,0.40820669811,0.418411865562,0.428617033015,0.438822200468,0.449027367921,0.459232535373,0.459232535373,0.469437702826,0.479642870279,0.489848037732,0.500053205184,0.510258372637,0.52046354009,0.530668707542,0.540873874995,0.540873874995,0.551079042448,0.561284209901,0.571489377353,0.581694544806,0.591899712259,0.602104879712,0.612310047164,0.612310047164,0.622515214617,0.63272038207,0.642925549523,0.653130716975,0.663335884428,0.673541051881,0.673541051881,0.683746219334,0.704156554239,0.704156554239,0.724566889145,0.734772056597,0.74497722405,0.755182391503,0.765387558955,0.775592726408,0.785797893861,0.796003061314,0.806208228766,0.816413396219,0.826618563672,0.836823731125,0.847028898577,0.85723406603,0.85723406603,0.867439233483,0.877644400936,0.887849568388,0.898054735841,0.908259903294,0.928670238199,0.938875405652,0.949080573105,0.959285740558,0.96949090801,0.979696075463,0.989901242916,1.00010641037,1.01031157782,1.02051674527,1.04092708018,1.05113224763,1.06133741508,1.07154258254,1.09195291744,1.1021580849,1.11236325235,1.1225684198,1.13277358725,1.13277358725,1.14297875471,1.15318392216,1.16338908961,1.17359425707,1.19400459197,1.20420975942,1.21441492688,1.23482526178,1.24503042923,1.25523559669,1.26544076414,1.27564593159,1.28585109905,1.28585109905,0.0,0.0,0.0,0.0,0.0,0.0,0.0,0.0,0.0,0.0,0.0,0.0,0.0,0.0,0.0,0.0,0.0,0.0,0.0,0.0,0.0,0.0,0.0,0.0,0.0,0.0,0.0,0.0,0.0,0.0,0.0,0.0,0.0,0.0,0.0,0.0,0.0,0.0,0.0,0.0,0.0,0.0,0.0,0.0,0.0,0.0,0.0,0.0,0.0,0.0,0.0,0.0,0.0,0.0,0.0,0.0,0.0,0.0,0.0,0.0,0.0,0.0,0.0,0.0,0.0,0.0,0.0,0.0,0.0,0.0,0.0,0.0,0.0,0.0,0.0,0.0,0.0,0.0,0.0,0.0,0.0
0.0,0.0,0.0,0.0,0.0,0.0,0.0,0.0,0.0,0.0,0.0,0.0,0.0,0.0,0.0,0.0,0.0,0.0,0.0,0.0,0.0,0.0,0.0,0.0,0.0,0.0,0.0,0.0,0.0,0.0,0.0,0.0,0.0,0.0,0.0,0.0,0.0,0.0,0.0,0.0,0.0,0.0,0.0,0.0,0.0,0.0,0.0,0.0,0.0,0.0,0.0,0.0,0.0,0.0,0.0,0.0,0.0,0.0,0.0,0.0,0.0,0.0,0.0,0.0,0.0,0.0,0.0,0.0,0.0,0.0,0.0,0.0,0.0,0.0,0.0,0.0,0.0,0.0,0.0,0.0,0.0,0.0,0.0,0.0,0.0,0.0,0.0,0.0,0.0,0.0,0.0,0.0,0.0,0.0,0.0,0.0,0.0,0.0,0.0,0.0,0.0,0.0,0.0,0.0,0.0,0.0,0.0,0.0,0.0,0.0,0.0,0.0,0.0,0.0,0.0,0.0,0.0,0.0,0.0,0.0,0.0,0.0,0.0,0.0,0.0,0.0,0.0,0.0,0.0,0.0,0.0,0.0,0.0,0.0,0.0,0.0,0.0,0.0,0.0,0.0,0.0,0.0,0.0,0.0,0.0,0.0,0.0,0.0,0.0,0.0,0.0,0.0,0.0,0.0,0.0,0.0,0.0,0.0,0.0,0.0,0.0,0.0,0.0,0.0,-0.785797893861,-0.775592726408,-0.765387558955,-0.765387558955,-0.755182391503,-0.755182391503,-0.74497722405,-0.74497722405,-0.74497722405,-0.734772056597,-0.734772056597,-0.724566889145,-0.714361721692,-0.714361721692,-0.704156554239,-0.704156554239,-0.693951386786,-0.693951386786,-0.683746219334,-0.683746219334,-0.673541051881,-0.673541051881,-0.663335884428,-0.663335884428,-0.653130716975,-0.653130716975,-0.642925549523,-0.642925549523,-0.63272038207,-0.622515214617,-0.622515214617,-0.622515214617,-0.612310047164,-0.612310047164,-0.602104879712,-0.602104879712,-0.591899712259,-0.591899712259,-0.581694544806,-0.571489377353,-0.571489377353,-0.561284209901,-0.561284209901,-0.551079042448,-0.551079042448,-0.540873874995,-0.540873874995,-0.530668707542,-0.530668707542,-0.52046354009,-0.52046354009,-0.510258372637,-0.510258372637,-0.500053205184,-0.500053205184,-0.500053205184,-0.489848037732,-0.479642870279,-0.479642870279,-0.469437702826,-0.469437702826,-0.459232535373,-0.459232535373,-0.449027367921,-0.438822200468,-0.438822200468,-0.428617033015,-0.428617033015,-0.418411865562,-0.418411865562,-0.40820669811,-0.40820669811,-0.398001530657,-0.398001530657,-0.387796363204,-0.377591195751,-0.377591195751,-0.367386028299,-0.357180860846,-0.357180860846,-0.346975693393,-0.346975693393,-0.33677052594,-0.326565358488,-0.326565358488,-0.316360191035,-0.316360191035,-0.306155023582,-0.295949856129,-0.295949856129,-0.285744688677,-0.275539521224,-0.275539521224,-0.265334353771,-0.265334353771,-0.255129186318,-0.255129186318,-0.244924018866,-0.244924018866,-0.234718851413,-0.234718851413,-0.22451368396,-0.214308516508,-0.204103349055,-0.193898181602,-0.193898181602,-0.183693014149,-0.173487846697,-0.173487846697,-0.163282679244,-0.163282679244,-0.153077511791,-0.142872344338,-0.142872344338,-0.132667176886,-0.132667176886,-0.122462009433,-0.11225684198,-0.11225684198,-0.102051674527,-0.0918465070747,-0.0816413396219,-0.0816413396219,-0.0714361721692,-0.0612310047164,-0.0612310047164,-0.0510258372637,-0.040820669811,-0.040820669811,-0.0306155023582,-0.0204103349055,-0.0204103349055,-0.0102051674527,0.0,0.0,0.0102051674527,0.0204103349055,0.0306155023582,0.0306155023582,0.040820669811,0.0510258372637,0.0510258372637,0.0612310047164,0.0714361721692,0.0714361721692,0.0816413396219,0.0918465070747,0.0918465070747,0.102051674527,0.11225684198,0.122462009433,0.132667176886,0.142872344338,0.142872344338,0.153077511791,0.163282679244,0.173487846697,0.173487846697,0.183693014149,0.193898181602,0.193898181602,0.204103349055,0.214308516508,0.22451368396,0.22451368396,0.234718851413,0.244924018866,0.244924018866,0.255129186318,0.265334353771,0.275539521224,0.275539521224,0.285744688677,0.295949856129,0.306155023582,0.316360191035,0.326565358488,0.33677052594,0.346975693393,0.357180860846,0.357180860846,0.367386028299,0.377591195751,0.387796363204,0.387796363204,0.398001530657,0.40820669811,0.418411865562,0.428617033015,0.438822200468,0.449027367921,0.449027367921,0.459232535373,0.469437702826,0.479642870279,0.489848037732,0.500053205184,0.510258372637,0.510258372637,0.52046354009,0.540873874995,0.540873874995,0.551079042448,0.561284209901,0.571489377353,0.581694544806,0.591899712259,0.602104879712,0.602104879712,0.612310047164,0.622515214617,0.63272038207,0.642925549523,0.653130716975,0.663335884428,0.673541051881,0.683746219334,0.693951386786,0.704156554239,0.714361721692,0.724566889145,0.734772056597,0.74497722405,0.755182391503,0.765387558955,0.775592726408,0.785797893861,0.796003061314,0.806208228766,0.806208228766,0.826618563672,0.826618563672,0.847028898577,0.85723406603,0.85723406603,0.867439233483,0.887849568388,0.887849568388,0.908259903294,0.918465070747,0.928670238199,0.938875405652,0.949080573105,0.959285740558,0.96949090801,0.979696075463,0.989901242916,1.00010641037,1.01031157782,1.03072191273,1.04092708018,1.05113224763,1.06133741508,1.07154258254,1.08174774999,1.09195291744,1.1021580849,1.1225684198,1.1225684198,1.13277358725,1.14297875471,1.15318392216,1.16338908961,1.17359425707,1.19400459197,1.20420975942,1.22462009433,1.23482526178,1.24503042923,1.25523559669,1.26544076414,1.27564593159,1.28585109905,1.28585109905,0.0,0.0,0.0,0.0,0.0,0.0,0.0,0.0,0.0,0.0,0.0,0.0,0.0,0.0,0.0,0.0,0.0,0.0,0.0,0.0,0.0,0.0,0.0,0.0,0.0,0.0,0.0,0.0,0.0,0.0,0.0,0.0,0.0,0.0,0.0,0.0,0.0,0.0,0.0,0.0,0.0,0.0,0.0,0.0,0.0,0.0,0.0,0.0,0.0,0.0,0.0,0.0,0.0,0.0,0.0,0.0,0.0,0.0,0.0,0.0,0.0,0.0,0.0,0.0,0.0,0.0,0.0,0.0,0.0,0.0,0.0,0.0,0.0,0.0,0.0,0.0,0.0,0.0,0.0,0.0,0.0
0.0,0.0,0.0,0.0,0.0,0.0,0.0,0.0,0.0,0.0,0.0,0.0,0.0,0.0,0.0,0.0,0.0,0.0,0.0,0.0,0.0,0.0,0.0,0.0,0.0,0.0,0.0,0.0,0.0,0.0,0.0,0.0,0.0,0.0,0.0,0.0,0.0,0.0,0.0,0.0,0.0,0.0,0.0,0.0,0.0,0.0,0.0,0.0,0.0,0.0,0.0,0.0,0.0,0.0,0.0,0.0,0.0,0.0,0.0,0.0,0.0,0.0,0.0,0.0,0.0,0.0,0.0,0.0,0.0,0.0,0.0,0.0,0.0,0.0,0.0,0.0,0.0,0.0,0.0,0.0,0.0,0.0,0.0,0.0,0.0,0.0,0.0,0.0,0.0,0.0,0.0,0.0,0.0,0.0,0.0,0.0,0.0,0.0,0.0,0.0,0.0,0.0,0.0,0.0,0.0,0.0,0.0,0.0,0.0,0.0,0.0,0.0,0.0,0.0,0.0,0.0,0.0,0.0,0.0,0.0,0.0,0.0,0.0,0.0,0.0,0.0,0.0,0.0,0.0,0.0,0.0,0.0,0.0,0.0,0.0,0.0,0.0,0.0,0.0,0.0,0.0,0.0,0.0,0.0,0.0,0.0,0.0,0.0,0.0,0.0,0.0,0.0,0.0,0.0,0.0,0.0,0.0,0.0,0.0,0.0,0.0,0.0,0.0,0.0,0.0,0.0,-0.765387558955,-0.765387558955,-0.755182391503,-0.755182391503,-0.74497722405,-0.74497722405,-0.734772056597,-0.734772056597,-0.724566889145,-0.724566889145,-0.714361721692,-0.704156554239,-0.704156554239,-0.693951386786,-0.693951386786,-0.683746219334,-0.683746219334,-0.683746219334,-0.673541051881,-0.673541051881,-0.663335884428,-0.653130716975,-0.653130716975,-0.642925549523,-0.642925549523,-0.63272038207,-0.63272038207,-0.622515214617,-0.622515214617,-0.612310047164,-0.612310047164,-0.602104879712,-0.602104879712,-0.591899712259,-0.591899712259,-0.581694544806,-0.581694544806,-0.571489377353,-0.571489377353,-0.561284209901,-0.561284209901,-0.551079042448,-0.551079042448,-0.540873874995,-0.540873874995,-0.530668707542,-0.530668707542,-0.52046354009,-0.52046354009,-0.510258372637,-0.510258372637,-0.500053205184,-0.500053205184,-0.489848037732,-0.489848037732,-0.479642870279,-0.469437702826,-0.469437702826,-0.459232535373,-0.459232535373,-0.449027367921,-0.449027367921,-0.438822200468,-0.438822200468,-0.428617033015,-0.428617033015,-0.418411865562,-0.418411865562,-0.40820669811,-0.398001530657,-0.398001530657,-0.387796363204,-0.387796363204,-0.377591195751,-0.367386028299,-0.367386028299,-0.357180860846,-0.357180860846,-0.346975693393,-0.33677052594,-0.33677052594,-0.326565358488,-0.316360191035,-0.316360191035,-0.306155023582,-0.306155023582,-0.295949856129,-0.285744688677,-0.285744688677,-0.275539521224,-0.275539521224,-0.265334353771,-0.265334353771,-0.255129186318,-0.255129186318,-0.244924018866,-0.244924018866,-0.234718851413,-0.22451368396,-0.22451368396,-0.214308516508,-0.204103349055,-0.193898181602,-0.183693014149,-0.183693014149,-0.173487846697,-0.173487846697,-0.163282679244,-0.153077511791,-0.153077511791,-0.142872344338,-0.142872344338,-0.132667176886,-0.122462009433,-0.122462009433,-0.11225684198,-0.11225684198,-0.102051674527,-0.0918465070747,-0.0816413396219,-0.0816413396219,-0.0714361721692,-0.0612310047164,-0.0510258372637,-0.0510258372637,-0.040820669811,-0.040820669811,-0.0306155023582,-0.0204103349055,-0.0204103349055,-0.0102051674527,0.0,0.0,0.0102051674527,0.0204103349055,0.0306155023582,0.0306155023582,0.040820669811,0.0510258372637,0.0510258372637,0.0612310047164,0.0714361721692,0.0714361721692,0.0816413396219,0.0918465070747,0.0918465070747,0.102051674527,0.11225684198,0.122462009433,0.132667176886,0.142872344338,0.142872344338,0.153077511791,0.163282679244,0.173487846697,0.173487846697,0.183693014149,0.193898181602,0.193898181602,0.204103349055,0.214308516508,0.22451368396,0.22451368396,0.234718851413,0.244924018866,0.244924018866,0.255129186318,0.265334353771,0.275539521224,0.285744688677,0.295949856129,0.306155023582,0.306155023582,0.316360191035,0.326565358488,0.33677052594,0.346975693393,0.357180860846,0.357180860846,0.367386028299,0.377591195751,0.387796363204,0.387796363204,0.398001530657,0.40820669811,0.418411865562,0.428617033015,0.438822200468,0.438822200468,0.449027367921,0.459232535373,0.469437702826,0.479642870279,0.489848037732,0.489848037732,0.500053205184,0.510258372637,0.52046354009,0.530668707542,0.540873874995,0.551079042448,0.561284209901,0.571489377353,0.581694544806,0.591899712259,0.602104879712,0.612310047164,0.612310047164,0.622515214617,0.63272038207,0.642925549523,0.653130716975,0.663335884428,0.673541051881,0.683746219334,0.693951386786,0.704156554239,0.714361721692,0.724566889145,0.734772056597,0.74497722405,0.755182391503,0.765387558955,0.775592726408,0.785797893861,0.796003061314,0.796003061314,0.806208228766,0.826618563672,0.826618563672,0.847028898577,0.85723406603,0.867439233483,0.877644400936,0.887849568388,0.898054735841,0.908259903294,0.918465070747,0.928670238199,0.938875405652,0.949080573105,0.959285740558,0.96949090801,0.979696075463,0.989901242916,1.00010641037,1.02051674527,1.03072191273,1.04092708018,1.05113224763,1.06133741508,1.07154258254,1.08174774999,1.09195291744,1.1021580849,1.11236325235,1.1225684198,1.13277358725,1.14297875471,1.15318392216,1.16338908961,1.17359425707,1.19400459197,1.20420975942,1.22462009433,1.23482526178,1.24503042923,1.25523559669,1.26544076414,1.27564593159,1.28585109905,1.28585109905,0.0,0.0,0.0,0.0,0.0,0.0,0.0,0.0,0.0,0.0,0.0,0.0,0.0,0.0,0.0,0.0,0.0,0.0,0.0,0.0,0.0,0.0,0.0,0.0,0.0,0.0,0.0,0.0,0.0,0.0,0.0,0.0,0.0,0.0,0.0,0.0,0.0,0.0,0.0,0.0,0.0,0.0,0.0,0.0,0.0,0.0,0.0,0.0,0.0,0.0,0.0,0.0,0.0,0.0,0.0,0.0,0.0,0.0,0.0,0.0,0.0,0.0,0.0,0.0,0.0,0.0,0.0,0.0,0.0,0.0,0.0,0.0,0.0,0.0,0.0,0.0,0.0,0.0,0.0,0.0,0.0
0.0,0.0,0.0,0.0,0.0,0.0,0.0,0.0,0.0,0.0,0.0,0.0,0.0,0.0,0.0,0.0,0.0,0.0,0.0,0.0,0.0,0.0,0.0,0.0,0.0,0.0,0.0,0.0,0.0,0.0,0.0,0.0,0.0,0.0,0.0,0.0,0.0,0.0,0.0,0.0,0.0,0.0,0.0,0.0,0.0,0.0,0.0,0.0,0.0,0.0,0.0,0.0,0.0,0.0,0.0,0.0,0.0,0.0,0.0,0.0,0.0,0.0,0.0,0.0,0.0,0.0,0.0,0.0,0.0,0.0,0.0,0.0,0.0,0.0,0.0,0.0,0.0,0.0,0.0,0.0,0.0,0.0,0.0,0.0,0.0,0.0,0.0,0.0,0.0,0.0,0.0,0.0,0.0,0.0,0.0,0.0,0.0,0.0,0.0,0.0,0.0,0.0,0.0,0.0,0.0,0.0,0.0,0.0,0.0,0.0,0.0,0.0,0.0,0.0,0.0,0.0,0.0,0.0,0.0,0.0,0.0,0.0,0.0,0.0,0.0,0.0,0.0,0.0,0.0,0.0,0.0,0.0,0.0,0.0,0.0,0.0,0.0,0.0,0.0,0.0,0.0,0.0,0.0,0.0,0.0,0.0,0.0,0.0,0.0,0.0,0.0,0.0,0.0,0.0,0.0,0.0,0.0,0.0,0.0,0.0,0.0,0.0,0.0,0.0,0.0,0.0,0.0,0.0,0.0,0.0,0.0,0.0,0.0,0.0,-0.724566889145,-0.724566889145,-0.714361721692,-0.704156554239,-0.693951386786,-0.693951386786,-0.693951386786,-0.683746219334,-0.683746219334,-0.673541051881,-0.673541051881,-0.663335884428,-0.663335884428,-0.653130716975,-0.642925549523,-0.642925549523,-0.63272038207,-0.63272038207,-0.622515214617,-0.622515214617,-0.622515214617,-0.612310047164,-0.612310047164,-0.602104879712,-0.602104879712,-0.591899712259,-0.581694544806,-0.581694544806,-0.571489377353,-0.571489377353,-0.561284209901,-0.561284209901,-0.551079042448,-0.551079042448,-0.540873874995,-0.540873874995,-0.530668707542,-0.530668707542,-0.52046354009,-0.52046354009,-0.510258372637,-0.510258372637,-0.500053205184,-0.500053205184,-0.489848037732,-0.489848037732,-0.479642870279,-0.479642870279,-0.469437702826,-0.459232535373,-0.459232535373,-0.449027367921,-0.449027367921,-0.438822200468,-0.438822200468,-0.428617033015,-0.428617033015,-0.418411865562,-0.418411865562,-0.40820669811,-0.40820669811,-0.398001530657,-0.398001530657,-0.387796363204,-0.377591195751,-0.377591195751,-0.367386028299,-0.367386028299,-0.357180860846,-0.346975693393,-0.346975693393,-0.33677052594,-0.326565358488,-0.326565358488,-0.316360191035,-0.316360191035,-0.306155023582,-0.306155023582,-0.295949856129,-0.285744688677,-0.285744688677,-0.275539521224,-0.275539521224,-0.265334353771,-0.255129186318,-0.255129186318,-0.244924018866,-0.244924018866,-0.234718851413,-0.234718851413,-0.22451368396,-0.214308516508,-0.214308516508,-0.204103349055,-0.193898181602,-0.183693014149,-0.173487846697,-0.173487846697,-0.163282679244,-0.163282679244,-0.153077511791,-0.153077511791,-0.142872344338,-0.132667176886,-0.132667176886,-0.122462009433,-0.122462009433,-0.11225684198,-0.11225684198,-0.102051674527,-0.0918465070747,-0.0816413396219,-0.0714361721692,-0.0714361721692,-0.0612310047164,-0.0510258372637,-0.0510258372637,-0.040820669811,-0.040820669811,-0.0306155023582,-0.0204103349055,-0.0204103349055,-0.0102051674527,0.0,0.0,0.0102051674527,0.0204103349055,0.0306155023582,0.0306155023582,0.040820669811,0.0510258372637,0.0510258372637,0.0612310047164,0.0714361721692,0.0714361721692,0.0816413396219,0.0918465070747,0.0918465070747,0.102051674527,0.11225684198,0.122462009433,0.132667176886,0.142872344338,0.142872344338,0.153077511791,0.163282679244,0.173487846697,0.173487846697,0.183693014149,0.193898181602,0.193898181602,0.204103349055,0.214308516508,0.22451368396,0.22451368396,0.234718851413,0.244924018866,0.244924018866,0.255129186318,0.265334353771,0.275539521224,0.285744688677,0.295949856129,0.306155023582,0.306155023582,0.316360191035,0.326565358488,0.33677052594,0.346975693393,0.357180860846,0.357180860846,0.367386028299,0.377591195751,0.387796363204,0.387796363204,0.398001530657,0.40820669811,0.418411865562,0.428617033015,0.428617033015,0.438822200468,0.449027367921,0.459232535373,0.469437702826,0.479642870279,0.479642870279,0.489848037732,0.500053205184,0.510258372637,0.52046354009,0.530668707542,0.540873874995,0.551079042448,0.561284209901,0.571489377353,0.581694544806,0.591899712259,0.602104879712,0.612310047164,0.622515214617,0.622515214617,0.63272038207,0.642925549523,0.653130716975,0.663335884428,0.673541051881,0.683746219334,0.693951386786,0.704156554239,0.714361721692,0.724566889145,0.734772056597,0.74497722405,0.755182391503,0.765387558955,0.775592726408,0.785797893861,0.796003061314,0.796003061314,0.806208228766,0.816413396219,0.826618563672,0.836823731125,0.85723406603,0.867439233483,0.877644400936,0.887849568388,0.898054735841,0.908259903294,0.918465070747,0.928670238199,0.938875405652,0.949080573105,0.959285740558,0.96949090801,0.979696075463,0.989901242916,1.00010641037,1.01031157782,1.03072191273,1.04092708018,1.05113224763,1.06133741508,1.07154258254,1.08174774999,1.09195291744,1.1021580849,1.11236325235,1.1225684198,1.13277358725,1.14297875471,1.15318392216,1.16338908961,1.17359425707,1.19400459197,1.20420975942,1.21441492688,1.23482526178,1.24503042923,1.25523559669,1.26544076414,1.27564593159,1.28585109905,1.28585109905,0.0,0.0,0.0,0.0,0.0,0.0,0.0,0.0,0.0,0.0,0.0,0.0,0.0,0.0,0.0,0.0,0.0,0.0,0.0,0.0,0.0,0.0,0.0,0.0,0.0,0.0,0.0,0.0,0.0,0.0,0.0,0.0,0.0,0.0,0.0,0.0,0.0,0.0,0.0,0.0,0.0,0.0,0.0,0.0,0.0,0.0,0.0,0.0,0.0,0.0,0.0,0.0,0.0,0.0,0.0,0.0,0.0,0.0,0.0,0.0,0.0,0.0,0.0,0.0,0.0,0.0,0.0,0.0,0.0,0.0,0.0,0.0,0.0,0.0,0.0,0.0,0.0,0.0,0.0,0.0,0.0
0.0,0.0,0.0,0.0,0.0,0.0,0.0,0.0,0.0,0.0,0.0,0.0,0.0,0.0,0.0,0.0,0.0,0.0,0.0,0.0,0.0,0.0,0.0,0.0,0.0,0.0,0.0,0.0,0.0,0.0,0.0,0.0,0.0,0.0,0.0,0.0,0.0,0.0,0.0,0.0,0.0,0.0,0.0,0.0,0.0,0.0,0.0,0.0,0.0,0.0,0.0,0.0,0.0,0.0,0.0,0.0,0.0,0.0,0.0,0.0,0.0,0.0,0.0,0.0,0.0,0.0,0.0,0.0,0.0,0.0,0.0,0.0,0.0,0.0,0.0,0.0,0.0,0.0,0.0,0.0,0.0,0.0,0.0,0.0,0.0,0.0,0.0,0.0,0.0,0.0,0.0,0.0,0.0,0.0,0.0,0.0,0.0,0.0,0.0,0.0,0.0,0.0,0.0,0.0,0.0,0.0,0.0,0.0,0.0,0.0,0.0,0.0,0.0,0.0,0.0,0.0,0.0,0.0,0.0,0.0,0.0,0.0,0.0,0.0,0.0,0.0,0.0,0.0,0.0,0.0,0.0,0.0,0.0,0.0,0.0,0.0,0.0,0.0,0.0,0.0,0.0,0.0,0.0,0.0,0.0,0.0,0.0,0.0,0.0,0.0,0.0,0.0,0.0,0.0,0.0,0.0,0.0,0.0,0.0,0.0,0.0,0.0,0.0,0.0,0.0,0.0,0.0,0.0,0.0,0.0,0.0,0.0,0.0,0.0,0.0,0.0,0.0,0.0,-0.693951386786,-0.693951386786,-0.683746219334,-0.683746219334,-0.683746219334,-0.673541051881,-0.673541051881,-0.663335884428,-0.663335884428,-0.653130716975,-0.642925549523,-0.642925549523,-0.63272038207,-0.63272038207,-0.622515214617,-0.622515214617,-0.612310047164,-0.612310047164,-0.602104879712,-0.602104879712,-0.591899712259,-0.591899712259,-0.581694544806,-0.571489377353,-0.571489377353,-0.561284209901,-0.561284209901,-0.551079042448,-0.551079042448,-0.540873874995,-0.540873874995,-0.530668707542,-0.530668707542,-0.52046354009,-0.52046354009,-0.52046354009,-0.510258372637,-0.510258372637,-0.500053205184,-0.500053205184,-0.489848037732,-0.489848037732,-0.479642870279,-0.469437702826,-0.469437702826,-0.459232535373,-0.459232535373,-0.449027367921,-0.438822200468,-0.438822200468,-0.428617033015,-0.428617033015,-0.418411865562,-0.418411865562,-0.40820669811,-0.40820669811,-0.398001530657,-0.398001530657,-0.387796363204,-0.387796363204,-0.377591195751,-0.377591195751,-0.367386028299,-0.357180860846,-0.357180860846,-0.346975693393,-0.33677052594,-0.33677052594,-0.326565358488,-0.326565358488,-0.316360191035,-0.306155023582,-0.306155023582,-0.295949856129,-0.295949856129,-0.285744688677,-0.275539521224,-0.275539521224,-0.265334353771,-0.265334353771,-0.255129186318,-0.255129186318,-0.244924018866,-0.244924018866,-0.234718851413,-0.22451368396,-0.22451368396,-0.214308516508,-0.204103349055,-0.204103349055,-0.193898181602,-0.183693014149,-0.173487846697,-0.173487846697,-0.163282679244,-0.153077511791,-0.153077511791,-0.142872344338,-0.142872344338,-0.132667176886,-0.132667176886,-0.122462009433,-0.122462009433,-0.11225684198,-0.102051674527,-0.102051674527,-0.0918465070747,-0.0816413396219,-0.0714361721692,-0.0714361721692,-0.0612310047164,-0.0510258372637,-0.0510258372637,-0.040820669811,-0.0306155023582,-0.0306155023582,-0.0204103349055,-0.0204103349055,-0.0102051674527,0.0,0.0102051674527,0.0102051674527,0.0204103349055,0.0306155023582,0.0306155023582,0.040820669811,0.0510258372637,0.0510258372637,0.0612310047164,0.0714361721692,0.0714361721692,0.0816413396219,0.0918465070747,0.0918465070747,0.102051674527,0.11225684198,0.122462009433,0.132667176886,0.142872344338,0.142872344338,0.153077511791,0.163282679244,0.173487846697,0.173487846697,0.183693014149,0.193898181602,0.204103349055,0.204103349055,0.214308516508,0.22451368396,0.22451368396,0.234718851413,0.244924018866,0.244924018866,0.255129186318,0.265334353771,0.275539521224,0.285744688677,0.295949856129,0.306155023582,0.306155023582,0.316360191035,0.326565358488,0.33677052594,0.346975693393,0.357180860846,0.357180860846,0.367386028299,0.377591195751,0.377591195751,0.387796363204,0.398001530657,0.40820669811,0.418411865562,0.428617033015,0.428617033015,0.438822200468,0.449027367921,0.459232535373,0.469437702826,0.479642870279,0.479642870279,0.489848037732,0.500053205184,0.510258372637,0.52046354009,0.530668707542,0.540873874995,0.551079042448,0.561284209901,0.571489377353,0.581694544806,0.591899712259,0.602104879712,0.612310047164,0.622515214617,0.622515214617,0.63272038207,0.642925549523,0.653130716975,0.663335884428,0.673541051881,0.683746219334,0.693951386786,0.704156554239,0.714361721692,0.724566889145,0.734772056597,0.74497722405,0.755182391503,0.765387558955,0.775592726408,0.785797893861,0.796003061314,0.796003061314,0.806208228766,0.816413396219,0.826618563672,0.836823731125,0.85723406603,0.867439233483,0.877644400936,0.887849568388,0.898054735841,0.908259903294,0.918465070747,0.928670238199,0.938875405652,0.949080573105,0.959285740558,0.96949090801,0.979696075463,0.989901242916,1.00010641037,1.01031157782,1.03072191273,1.04092708018,1.05113224763,1.06133741508,1.07154258254,1.08174774999,1.09195291744,1.1021580849,1.11236325235,1.1225684198,1.13277358725,1.14297875471,1.15318392216,1.16338908961,1.17359425707,1.19400459197,1.20420975942,1.21441492688,1.23482526178,1.24503042923,1.25523559669,1.26544076414,1.27564593159,1.28585109905,1.2960562665,0.0,0.0,0.0,0.0,0.0,0.0,0.0,0.0,0.0,0.0,0.0,0.0,0.0,0.0,0.0,0.0,0.0,0.0,0.0,0.0,0.0,0.0,0.0,0.0,0.0,0.0,0.0,0.0,0.0,0.0,0.0,0.0,0.0,0.0,0.0,0.0,0.0,0.0,0.0,0.0,0.0,0.0,0.0,0.0,0.0,0.0,0.0,0.0,0.0,0.0,0.0,0.0,0.0,0.0,0.0,0.0,0.0,0.0,0.0,0.0,0.0,0.0,0.0,0.0,0.0,0.0,0.0,0.0,0.0,0.0,0.0,0.0,0.0,0.0,0.0,0.0,0.0,0.0,0.0,0.0,0.0
0.0,0.0,0.0,0.0,0.0,0.0,0.0,0.0,0.0,0.0,0.0,0.0,0.0,0.0,0.0,0.0,0.0,0.0,0.0,0.0,0.0,0.0,0.0,0.0,0.0,0.0,0.0,0.0,0.0,0.0,0.0,0.0,0.0,0.0,0.0,0.0,0.0,0.0,0.0,0.0,0.0,0.0,0.0,0.0,0.0,0.0,0.0,0.0,0.0,0.0,0.0,0.0,0.0,0.0,0.0,0.0,0.0,0.0,0.0,0.0,0.0,0.0,0.0,0.0,0.0,0.0,0.0,0.0,0.0,0.0,0.0,0.0,0.0,0.0,0.0,0.0,0.0,0.0,0.0,0.0,0.0,0.0,0.0,0.0,0.0,0.0,0.0,0.0,0.0,0.0,0.0,0.0,0.0,0.0,0.0,0.0,0.0,0.0,0.0,0.0,0.0,0.0,0.0,0.0,0.0,0.0,0.0,0.0,0.0,0.0,0.0,0.0,0.0,0.0,0.0,0.0,0.0,0.0,0.0,0.0,0.0,0.0,0.0,0.0,0.0,0.0,0.0,0.0,0.0,0.0,0.0,0.0,0.0,0.0,0.0,0.0,0.0,0.0,0.0,0.0,0.0,0.0,0.0,0.0,0.0,0.0,0.0,0.0,0.0,0.0,0.0,0.0,0.0,0.0,0.0,0.0,0.0,0.0,0.0,0.0,0.0,0.0,0.0,0.0,0.0,0.0,0.0,0.0,0.0,0.0,0.0,0.0,0.0,0.0,0.0,0.0,0.0,0.0,0.0,0.0,0.0,0.0,0.0,0.0,0.0,0.0,-0.653130716975,-0.653130716975,-0.642925549523,-0.63272038207,-0.63272038207,-0.622515214617,-0.622515214617,-0.622515214617,-0.612310047164,-0.612310047164,-0.602104879712,-0.591899712259,-0.591899712259,-0.581694544806,-0.581694544806,-0.571489377353,-0.571489377353,-0.561284209901,-0.561284209901,-0.551079042448,-0.551079042448,-0.540873874995,-0.540873874995,-0.530668707542,-0.530668707542,-0.52046354009,-0.52046354009,-0.510258372637,-0.510258372637,-0.500053205184,-0.500053205184,-0.489848037732,-0.489848037732,-0.479642870279,-0.479642870279,-0.469437702826,-0.459232535373,-0.459232535373,-0.449027367921,-0.449027367921,-0.438822200468,-0.438822200468,-0.428617033015,-0.428617033015,-0.418411865562,-0.418411865562,-0.40820669811,-0.40820669811,-0.398001530657,-0.398001530657,-0.387796363204,-0.387796363204,-0.377591195751,-0.367386028299,-0.367386028299,-0.357180860846,-0.346975693393,-0.346975693393,-0.33677052594,-0.326565358488,-0.326565358488,-0.316360191035,-0.316360191035,-0.306155023582,-0.306155023582,-0.295949856129,-0.285744688677,-0.285744688677,-0.275539521224,-0.275539521224,-0.265334353771,-0.255129186318,-0.255129186318,-0.244924018866,-0.244924018866,-0.234718851413,-0.234718851413,-0.22451368396,-0.214308516508,-0.214308516508,-0.204103349055,-0.193898181602,-0.183693014149,-0.183693014149,-0.173487846697,-0.163282679244,-0.163282679244,-0.153077511791,-0.142872344338,-0.142872344338,-0.132667176886,-0.132667176886,-0.122462009433,-0.122462009433,-0.11225684198,-0.11225684198,-0.102051674527,-0.0918465070747,-0.0918465070747,-0.0816413396219,-0.0714361721692,-0.0714361721692,-0.0612310047164,-0.0510258372637,-0.0510258372637,-0.040820669811,-0.0306155023582,-0.0306155023582,-0.0204103349055,-0.0102051674527,-0.0102051674527,0.0,0.0102051674527,0.0102051674527,0.0204103349055,0.0306155023582,0.040820669811,0.040820669811,0.0510258372637,0.0510258372637,0.0612310047164,0.0714361721692,0.0714361721692,0.0816413396219,0.0918465070747,0.0918465070747,0.102051674527,0.11225684198,0.122462009433,0.132667176886,0.142872344338,0.142872344338,0.153077511791,0.163282679244,0.173487846697,0.183693014149,0.183693014149,0.193898181602,0.204103349055,0.204103349055,0.214308516508,0.22451368396,0.22451368396,0.234718851413,0.244924018866,0.244924018866,0.255129186318,0.265334353771,0.275539521224,0.285744688677,0.295949856129,0.306155023582,0.306155023582,0.316360191035,0.326565358488,0.33677052594,0.346975693393,0.357180860846,0.357180860846,0.367386028299,0.377591195751,0.377591195751,0.387796363204,0.398001530657,0.40820669811,0.418411865562,0.428617033015,0.438822200468,0.438822200468,0.449027367921,0.459232535373,0.469437702826,0.469437702826,0.479642870279,0.489848037732,0.500053205184,0.510258372637,0.52046354009,0.530668707542,0.540873874995,0.551079042448,0.561284209901,0.571489377353,0.581694544806,0.591899712259,0.602104879712,0.612310047164,0.622515214617,0.622515214617,0.63272038207,0.642925549523,0.653130716975,0.663335884428,0.673541051881,0.683746219334,0.693951386786,0.704156554239,0.714361721692,0.724566889145,0.734772056597,0.74497722405,0.755182391503,0.765387558955,0.775592726408,0.785797893861,0.796003061314,0.796003061314,0.806208228766,0.816413396219,0.826618563672,0.836823731125,0.847028898577,0.85723406603,0.867439233483,0.887849568388,0.898054735841,0.908259903294,0.918465070747,0.928670238199,0.938875405652,0.949080573105,0.949080573105,0.959285740558,0.979696075463,0.989901242916,1.00010641037,1.01031157782,1.03072191273,1.04092708018,1.05113224763,1.06133741508,1.07154258254,1.08174774999,1.09195291744,1.1021580849,1.11236325235,1.1225684198,1.13277358725,1.14297875471,1.15318392216,1.16338908961,1.17359425707,1.19400459197,1.20420975942,1.21441492688,1.23482526178,1.24503042923,1.25523559669,1.26544076414,1.27564593159,1.28585109905,0.0,0.0,0.0,0.0,0.0,0.0,0.0,0.0,0.0,0.0,0.0,0.0,0.0,0.0,0.0,0.0,0.0,0.0,0.0,0.0,0.0,0.0,0.0,0.0,0.0,0.0,0.0,0.0,0.0,0.0,0.0,0.0,0.0,0.0,0.0,0.0,0.0,0.0,0.0,0.0,0.0,0.0,0.0,0.0,0.0,0.0,0.0,0.0,0.0,0.0,0.0,0.0,0.0,0.0,0.0,0.0,0.0,0.0,0.0,0.0,0.0,0.0,0.0,0.0,0.0,0.0,0.0,0.0,0.0,0.0,0.0,0.0,0.0,0.0,0.0,0.0,0.0,0.0,0.0,0.0,0.0,0.0
