0,0,0,0,0,0,0,0,0,0,0,0,0,0,0,297,298,298,298,299,299,299,300,300,300,300,301,301,302,302,303,303,303,304,304,304,305,305,305,306,306,306,307,307,308,308,308,309,309,309,310,310,310,311,311,312,312,312,313,313,313,314,314,314,315,315,315,316,316,317,317,318,318,318,319,319,319,320,320,321,321,322,322,322,323,323,323,324,324,324,325,325,326,326,326,327,327,328,328,329,329,329,330,330,331,331,331,332,332,333,333,334,334,334,335,335,336,336,336,337,337,337,338,338,339,339,339,340,340,341,341,342,342,343,343,344,344,344,345,345,346,346,347,347,347,348,348,349,349,350,350,351,351,352,352,353,353,354,354,355,355,356,356,357,357,357,358,358,359,359,360,361,361,361,362,362,363,363,363,364,364,365,365,366,366,367,367,368,368,369,369,370,370,371,372,372,373,373,374,374,375,375,375,376,376,377,377,378,378,379,380,380,381,381,382,382,383,383,384,384,385,385,386,386,387,387,388,389,389,390,390,391,391,392,393,393,394,394,395,395,396,396,397,397,398,399,399,400,400,401,401,402,402,403,404,404,405,405,406,406,407,408,408,409,409,410,410,411,411,412,412,413,414,414,415,415,416,417,417,418,418,419,419,420,420,421,422,422,423,424,424,425,426,427,427,428,429,429,430,430,431,431,432,433,433,434,435,435,436,437,437,438,439,439,440,440,441,441,442,442,443,443,444,445,445,446,447,448,449,450,451,451,452,453,453,454,455,455,456,456,457,458,458,459,460,460,461,462,463,463,464,464,465,466,467,467,468,469,469,470,471,471,472,473,473,474,475,476,476,477,478,479,479,480,481,482,482,483,484,485,485,486,487,488,489,489,490,491,492,492,493,494,495,496,497,498,499,500,500,501,502,503,504,504,505,506,507,508,509,510,510,511,512,513,514,515,516,517,518,518,519,520,521,522,522,523,524,525,526,527,528,529,530,531,532,533,533,534,535,536,537,538,539,540,541,542,542,543,544,545,546,547,548,550,551,552,553,554,555,556,557,558,559,560,561,563,564,566,567,568,569,570,571,572,573,574,574,575,576,578,579,581,582,584,585,586,586,587,587,588,588,588,588,0,0,0,0,0,0,0,0,0,0,0,0,0,0,0,0,0,0,0,0,0,0,0,0,0,0,0,0,0,0,0,0,0,0,0,0,0,0,0,0,0,0,0,0,0,0,0,0,0,0,0,0,0,0,0,0,0,0,0,0,0,0,0,0,0,0,0,0,0,0,0,0,0,0,0,0,0,0,0,0,0,0,0,0,0,0,0,0,0,0,0,0,0,0,0,0,0,0,0,0,0,0,0,0,0,0,0,0,0,0,0,0,0,0,0,0,0,0,0,0,0,0,0,0,0,0,0,0,0,0,0,0,0,0,0,0,0,0,0,0,0,0,0,0,0,0,0
0,0,0,0,0,0,0,0,0,0,0,0,0,0,0,0,0,0,0,299,299,299,300,300,300,301,301,302,302,302,303,303,303,304,304,304,305,305,305,306,306,307,307,307,308,308,309,309,309,310,310,310,311,311,311,312,312,313,313,313,314,314,314,315,315,315,315,316,316,317,317,318,318,319,319,319,320,320,320,321,321,322,322,323,323,323,324,324,324,325,325,325,326,326,327,327,327,328,328,329,329,330,330,330,331,331,332,332,332,333,333,334,334,334,335,335,336,336,336,337,337,338,338,338,339,339,339,340,340,341,341,342,342,343,343,344,344,344,345,345,346,346,347,347,348,348,348,349,349,350,350,351,351,352,352,353,353,354,354,355,355,356,356,357,357,357,358,358,359,359,360,360,361,361,362,362,363,363,364,364,364,365,365,366,366,367,367,368,368,369,369,370,370,371,371,372,372,373,374,374,374,375,375,376,376,377,377,378,378,379,379,380,381,381,382,382,383,383,384,384,385,385,386,386,387,387,388,389,389,390,390,391,391,392,392,393,394,394,395,395,396,396,397,397,398,399,399,400,400,401,401,402,402,403,403,404,405,405,406,406,407,408,408,409,409,410,410,411,411,412,412,413,414,414,415,415,416,417,417,418,418,419,419,420,420,421,422,422,423,424,424,425,426,427,427,428,429,429,430,430,431,431,432,433,433,434,435,435,436,437,437,438,438,439,440,440,441,441,442,442,443,444,444,445,445,446,447,448,449,450,451,451,452,453,453,454,455,455,456,456,457,458,458,459,460,460,461,462,463,463,464,465,465,466,467,467,468,469,469,470,471,471,472,473,474,474,475,476,477,477,478,479,479,480,481,482,482,483,484,485,486,486,487,488,489,489,490,491,492,493,494,494,495,496,497,498,499,500,500,501,502,503,504,504,505,506,507,508,509,510,510,511,512,513,514,515,516,517,517,518,519,520,521,522,523,524,524,525,526,527,528,529,530,531,532,533,533,534,535,536,537,538,539,540,541,542,542,543,544,545,546,547,548,549,551,552,553,554,555,556,557,558,559,560,561,563,564,566,567,568,570,571,571,572,573,574,575,576,576,578,579,581,582,584,585,585,586,587,587,588,588,588,589,0,0,0,0,0,0,0,0,0,0,0,0,0,0,0,0,0,0,0,0,0,0,0,0,0,0,0,0,0,0,0,0,0,0,0,0,0,0,0,0,0,0,0,0,0,0,0,0,0,0,0,0,0,0,0,0,0,0,0,0,0,0,0,0,0,0,0,0,0,0,0,0,0,0,0,0,0,0,0,0,0,0,0,0,0,0,0,0,0,0,0,0,0,0,0,0,0,0,0,0,0,0,0,0,0,0,0,0,0,0,0,0,0,0,0,0,0,0,0,0,0,0,0,0,0,0,0,0,0,0,0,0,0,0,0,0,0,0,0,0,0,0,0,0,0,0,0
0,0,0,0,0,0,0,0,0,0,0,0,0,0,0,0,0,0,0,0,0,0,0,0,0,0,0,302,302,303,303,303,303,304,304,305,305,305,306,306,306,307,307,308,308,309,309,309,310,310,310,310,311,311,312,312,312,313,313,313,314,314,314,315,315,315,316,316,316,317,317,318,318,319,319,320,320,320,321,321,321,322,322,323,323,324,324,324,325,325,325,326,326,326,327,327,328,328,328,329,329,330,330,331,331,331,332,332,332,333,333,334,334,334,335,335,336,336,337,337,337,338,338,338,339,339,339,340,340,341,341,342,342,343,343,344,344,345,345,345,346,346,347,347,348,348,348,349,349,350,350,351,351,352,352,353,353,354,354,355,355,356,356,357,357,358,358,358,359,359,360,360,361,361,362,362,363,363,363,364,364,365,365,366,366,367,367,368,368,369,369,370,370,371,371,372,372,373,374,374,374,375,375,376,376,377,377,378,378,379,379,380,381,381,382,382,383,383,384,384,385,385,386,386,387,387,388,388,389,390,390,391,391,392,392,393,394,394,395,395,396,396,397,397,398,398,399,400,400,401,401,402,402,403,403,404,405,405,406,406,407,408,408,409,409,410,410,411,411,412,412,413,414,414,415,415,416,417,417,418,418,419,419,420,420,421,422,422,423,423,424,425,426,427,427,428,429,429,430,430,431,431,432,433,433,434,435,435,436,437,437,438,438,439,440,440,441,441,442,442,443,444,444,445,446,446,447,448,449,450,451,451,452,453,453,454,454,455,456,456,457,457,458,459,460,460,461,462,463,463,464,465,465,466,467,467,468,469,469,470,471,471,472,473,474,474,475,476,477,477,478,479,480,480,481,482,482,483,484,485,486,486,487,488,489,489,490,491,492,493,494,495,495,496,497,498,499,500,500,501,502,503,504,504,505,506,507,508,509,509,510,511,512,513,514,515,516,516,517,518,519,520,521,522,523,524,525,525,527,528,528,529,530,531,532,533,534,534,535,536,537,538,539,540,541,542,543,543,544,545,546,547,548,550,551,552,553,554,555,556,557,558,559,560,561,562,564,566,567,569,570,571,572,572,573,574,575,576,577,578,580,581,582,583,584,585,586,586,587,588,588,588,589,0,0,0,0,0,0,0,0,0,0,0,0,0,0,0,0,0,0,0,0,0,0,0,0,0,0,0,0,0,0,0,0,0,0,0,0,0,0,0,0,0,0,0,0,0,0,0,0,0,0,0,0,0,0,0,0,0,0,0,0,0,0,0,0,0,0,0,0,0,0,0,0,0,0,0,0,0,0,0,0,0,0,0,0,0,0,0,0,0,0,0,0,0,0,0,0,0,0,0,0,0,0,0,0,0,0,0,0,0,0,0,0,0,0,0,0,0,0,0,0,0,0,0,0,0,0,0,0,0,0,0,0,0,0,0,0,0,0,0,0,0,0,0,0,0,0,0
0,0,0,0,0,0,0,0,0,0,0,0,0,0,0,0,0,0,0,0,0,0,0,0,0,0,0,0,0,0,303,303,304,304,304,305,305,305,306,306,306,307,308,308,309,309,309,309,310,310,310,311,311,311,312,312,313,313,313,314,314,314,315,315,315,315,316,316,317,317,318,318,319,319,319,320,320,321,321,321,322,322,323,323,323,324,324,324,325,325,325,326,326,327,327,327,328,328,329,329,330,330,330,331,331,332,332,332,333,333,333,334,334,335,335,335,336,336,337,337,337,338,338,338,339,339,339,340,340,341,341,342,342,343,343,344,344,345,345,345,346,346,347,347,348,348,349,349,349,350,350,351,351,352,352,353,353,354,354,354,355,356,356,356,357,358,358,358,359,359,360,360,361,361,362,362,363,363,363,364,364,365,365,366,366,367,367,368,368,369,369,370,370,371,371,372,372,373,374,374,374,375,375,376,376,377,377,378,378,379,379,380,381,381,382,382,383,383,384,384,385,385,386,386,387,387,388,388,389,390,390,391,391,392,392,393,394,394,395,395,396,396,397,397,398,398,399,399,400,400,401,402,402,403,403,404,405,405,406,406,407,408,408,409,409,410,410,411,411,412,412,413,413,414,415,415,416,417,417,418,418,419,419,420,420,421,422,422,423,423,424,425,426,426,427,428,428,429,430,430,431,431,432,433,433,434,434,435,436,436,437,438,438,439,439,440,441,441,442,442,443,444,444,445,446,446,447,448,449,450,451,451,452,452,453,454,454,455,456,456,457,457,458,459,460,460,461,462,463,463,464,465,465,466,467,467,468,469,469,470,471,472,472,473,474,474,475,476,477,477,478,479,480,480,481,482,482,483,484,485,486,486,487,488,489,489,490,491,492,493,494,495,496,496,497,498,499,500,500,501,502,503,504,504,505,506,507,508,509,509,510,511,512,513,514,515,515,516,517,518,520,520,521,522,523,524,525,526,527,528,528,529,530,531,532,533,534,534,535,536,537,539,539,540,541,542,543,544,544,545,546,547,548,550,551,552,553,554,555,556,557,558,559,559,561,562,564,566,567,569,570,571,572,573,573,574,575,576,577,578,580,581,582,583,584,585,586,586,587,588,588,589,0,0,0,0,0,0,0,0,0,0,0,0,0,0,0,0,0,0,0,0,0,0,0,0,0,0,0,0,0,0,0,0,0,0,0,0,0,0,0,0,0,0,0,0,0,0,0,0,0,0,0,0,0,0,0,0,0,0,0,0,0,0,0,0,0,0,0,0,0,0,0,0,0,0,0,0,0,0,0,0,0,0,0,0,0,0,0,0,0,0,0,0,0,0,0,0,0,0,0,0,0,0,0,0,0,0,0,0,0,0,0,0,0,0,0,0,0,0,0,0,0,0,0,0,0,0,0,0,0,0,0,0,0,0,0,0,0,0,0,0,0,0,0,0,0,0,0,0
0,0,0,0,0,0,0,0,0,0,0,0,0,0,0,0,0,0,0,0,0,0,0,0,0,0,0,0,0,0,0,0,0,0,0,305,305,305,306,306,307,307,308,309,309,309,309,310,310,310,310,311,311,311,312,312,313,313,313,314,314,315,315,315,315,316,316,316,317,317,318,318,319,319,320,320,320,321,321,322,322,322,323,323,324,324,324,325,325,325,326,326,326,327,327,328,328,328,329,329,330,330,331,331,331,332,332,333,333,333,334,334,334,335,335,335,336,336,337,337,337,338,338,338,339,339,340,340,340,341,341,342,342,343,343,344,344,345,345,345,346,346,347,347,348,348,349,349,349,350,350,351,351,352,352,353,353,354,354,354,355,355,356,356,357,358,358,358,359,359,360,360,361,361,362,362,363,363,363,364,364,365,365,366,366,367,367,368,368,369,369,370,370,371,371,372,372,373,373,374,374,375,375,376,376,377,377,378,378,379,379,380,381,381,382,382,383,383,384,384,385,385,386,386,387,387,388,388,389,390,390,391,391,392,392,393,394,394,394,395,395,396,397,397,398,398,399,399,400,400,401,402,402,403,403,404,405,405,406,406,407,408,408,409,409,410,410,411,411,412,412,413,413,414,415,415,416,417,417,418,418,419,419,420,420,421,422,422,423,424,424,425,426,426,427,428,428,429,430,430,431,431,432,433,433,434,434,435,436,436,437,438,438,439,439,440,441,441,442,443,443,444,444,445,446,446,447,448,449,450,451,451,452,452,453,454,454,455,456,456,457,457,458,459,460,460,461,462,463,463,464,465,465,466,467,467,468,469,469,470,471,472,472,473,474,475,475,476,477,478,478,479,480,480,481,482,482,483,484,485,486,487,487,488,489,490,490,491,492,493,494,495,496,497,497,498,499,500,500,501,502,503,503,504,505,506,507,508,509,509,510,511,512,513,514,515,515,516,517,518,520,520,521,522,523,524,525,526,527,528,529,529,530,531,532,533,534,535,536,536,538,539,540,541,541,542,543,544,544,545,546,547,548,550,551,552,553,554,555,556,557,558,559,559,561,562,564,566,567,569,570,571,572,573,573,574,575,576,577,578,580,581,582,583,584,585,585,586,587,588,589,0,0,0,0,0,0,0,0,0,0,0,0,0,0,0,0,0,0,0,0,0,0,0,0,0,0,0,0,0,0,0,0,0,0,0,0,0,0,0,0,0,0,0,0,0,0,0,0,0,0,0,0,0,0,0,0,0,0,0,0,0,0,0,0,0,0,0,0,0,0,0,0,0,0,0,0,0,0,0,0,0,0,0,0,0,0,0,0,0,0,0,0,0,0,0,0,0,0,0,0,0,0,0,0,0,0,0,0,0,0,0,0,0,0,0,0,0,0,0,0,0,0,0,0,0,0,0,0,0,0,0,0,0,0,0,0,0,0,0,0,0,0,0,0,0,0,0,0,0
0,0,0,0,0,0,0,0,0,0,0,0,0,0,0,0,0,0,0,0,0,0,0,0,0,0,0,0,0,0,0,0,0,0,0,0,0,0,0,0,0,0,0,309,309,309,310,310,310,310,311,311,311,312,312,312,313,313,314,314,314,315,315,315,316,316,316,317,317,318,318,319,319,320,320,320,321,321,321,322,322,323,323,323,324,324,324,325,325,325,326,326,327,327,327,328,328,329,329,330,330,330,331,331,332,332,332,333,333,333,334,334,334,335,335,336,336,336,337,337,337,338,338,338,339,339,340,340,341,341,342,342,343,343,343,344,344,345,345,346,346,346,347,347,348,348,349,349,349,350,350,351,351,352,352,353,353,354,354,354,355,355,356,356,357,357,358,358,359,359,360,360,361,361,362,362,363,363,363,364,364,365,365,366,366,367,367,368,368,369,369,370,370,371,371,372,372,373,373,374,374,375,375,376,376,377,377,378,378,379,379,380,381,381,382,382,383,383,384,384,385,385,386,386,387,387,388,388,389,389,390,391,391,392,392,393,394,394,394,395,395,396,397,397,398,398,399,399,400,400,401,402,402,403,403,404,405,405,406,406,407,408,408,409,409,410,410,411,411,412,412,413,413,414,415,415,416,417,417,418,418,419,419,420,420,421,422,422,423,424,424,425,426,426,427,428,428,429,430,430,431,431,432,433,433,434,434,435,436,436,437,437,438,439,439,440,441,441,442,443,443,444,444,445,446,447,447,448,449,450,451,451,452,452,453,454,454,455,455,456,457,457,458,459,460,460,461,462,463,463,464,465,465,466,467,467,468,469,469,470,471,472,472,473,474,475,475,476,477,478,478,479,480,480,481,482,482,483,484,485,486,487,487,488,489,490,490,491,492,493,494,495,496,497,497,498,499,500,500,501,502,503,503,504,505,506,507,508,509,509,510,511,512,513,514,515,515,516,517,518,520,520,521,522,523,524,525,526,527,528,529,529,530,531,532,533,534,535,536,537,538,539,540,541,542,542,543,544,545,546,547,547,549,550,551,552,553,554,555,556,557,558,559,560,561,562,564,566,567,569,570,571,572,573,574,574,575,576,577,578,580,581,582,583,584,584,585,586,588,589,590,0,0,0,0,0,0,0,0,0,0,0,0,0,0,0,0,0,0,0,0,0,0,0,0,0,0,0,0,0,0,0,0,0,0,0,0,0,0,0,0,0,0,0,0,0,0,0,0,0,0,0,0,0,0,0,0,0,0,0,0,0,0,0,0,0,0,0,0,0,0,0,0,0,0,0,0,0,0,0,0,0,0,0,0,0,0,0,0,0,0,0,0,0,0,0,0,0,0,0,0,0,0,0,0,0,0,0,0,0,0,0,0,0,0,0,0,0,0,0,0,0,0,0,0,0,0,0,0,0,0,0,0,0,0,0,0,0,0,0,0,0,0,0,0,0,0,0,0,0
0,0,0,0,0,0,0,0,0,0,0,0,0,0,0,0,0,0,0,0,0,0,0,0,0,0,0,0,0,0,0,0,0,0,0,0,0,0,0,0,0,0,0,0,0,0,0,0,0,310,311,311,311,312,312,313,313,313,314,314,315,315,316,316,316,316,316,317,317,318,318,319,319,320,320,321,321,321,322,322,322,323,323,323,324,324,325,325,325,326,326,326,327,327,328,328,328,329,329,330,330,331,331,332,332,332,333,333,333,334,334,334,335,335,335,336,336,337,337,337,338,338,338,339,339,339,340,340,341,341,342,342,343,343,344,344,344,345,345,346,346,347,347,347,348,348,349,349,350,350,350,351,351,352,352,353,353,354,354,354,355,355,356,356,357,357,358,358,359,359,360,360,361,361,362,362,363,363,363,364,364,365,365,366,366,367,367,368,368,369,369,370,370,371,371,372,372,373,373,374,374,375,375,376,376,377,377,378,378,379,380,380,381,381,382,382,383,383,384,384,385,385,386,386,387,387,388,388,389,389,390,391,391,392,392,393,394,394,394,395,395,396,396,397,398,398,399,399,400,400,401,402,402,403,403,404,405,405,406,406,407,408,408,409,409,410,410,411,411,412,412,413,413,414,415,415,416,417,417,418,418,419,419,420,420,421,422,422,423,424,424,425,426,426,427,428,428,429,430,430,431,431,432,433,433,434,434,435,436,436,437,437,438,439,439,440,441,441,442,443,443,444,445,445,446,447,448,448,449,450,451,451,452,453,453,454,454,455,455,456,457,457,458,459,460,460,461,462,463,463,464,465,465,466,467,467,468,469,470,470,471,472,473,473,474,475,475,476,477,478,478,479,480,480,481,482,482,483,484,485,486,487,487,488,489,490,491,491,492,493,494,495,496,497,497,498,499,500,500,501,502,503,503,504,505,506,507,508,509,510,510,511,512,513,514,515,515,516,517,518,519,520,521,522,523,524,525,526,527,528,529,530,531,531,532,533,534,535,536,537,538,539,540,541,542,542,543,544,545,546,547,548,549,550,551,552,553,554,555,556,557,558,559,560,561,562,564,566,567,569,570,571,572,573,574,574,575,576,577,579,580,581,582,583,583,584,585,586,588,591,591,0,0,0,0,0,0,0,0,0,0,0,0,0,0,0,0,0,0,0,0,0,0,0,0,0,0,0,0,0,0,0,0,0,0,0,0,0,0,0,0,0,0,0,0,0,0,0,0,0,0,0,0,0,0,0,0,0,0,0,0,0,0,0,0,0,0,0,0,0,0,0,0,0,0,0,0,0,0,0,0,0,0,0,0,0,0,0,0,0,0,0,0,0,0,0,0,0,0,0,0,0,0,0,0,0,0,0,0,0,0,0,0,0,0,0,0,0,0,0,0,0,0,0,0,0,0,0,0,0,0,0,0,0,0,0,0,0,0,0,0,0,0,0,0,0,0,0,0,0
0,0,0,0,0,0,0,0,0,0,0,0,0,0,0,0,0,0,0,0,0,0,0,0,0,0,0,0,0,0,0,0,0,0,0,0,0,0,0,0,0,0,0,0,0,0,0,0,0,0,0,0,0,312,312,313,313,314,314,315,315,316,316,316,316,316,317,317,318,318,319,319,320,320,320,321,321,322,322,322,323,323,323,324,324,324,325,325,325,326,326,327,327,327,328,328,329,329,330,330,331,331,331,332,332,332,333,333,333,334,334,334,335,335,336,336,336,337,337,337,338,338,338,339,339,340,340,340,341,341,342,342,343,343,344,344,344,345,345,346,346,347,347,348,348,348,349,349,350,350,351,351,352,352,352,353,353,354,354,355,355,355,356,356,357,357,358,358,359,359,360,360,361,361,362,362,363,363,363,364,364,365,365,366,366,367,367,368,368,369,369,370,370,371,371,372,372,373,373,374,374,375,375,376,376,377,377,378,378,379,380,380,381,381,382,382,383,383,384,384,385,385,386,386,387,387,388,388,389,389,390,391,391,392,392,393,393,394,394,395,395,396,396,397,398,398,399,399,400,400,401,401,402,403,403,404,404,405,406,406,407,408,408,409,409,410,410,411,411,412,412,413,413,414,415,415,416,417,417,418,418,419,419,420,420,421,422,422,423,424,424,425,425,426,427,427,428,429,429,430,431,431,432,433,433,434,434,435,436,436,437,437,438,439,439,440,441,441,442,443,443,444,445,445,446,447,448,448,449,450,450,451,452,452,453,454,454,455,455,456,456,457,458,459,459,460,461,462,463,463,464,465,465,466,467,467,468,469,470,470,471,472,473,473,474,475,475,476,477,478,478,479,480,480,481,482,482,483,484,485,486,487,487,488,489,490,491,491,492,493,494,495,496,496,497,498,499,500,500,501,502,503,504,504,505,506,507,508,509,510,510,511,512,513,514,515,516,516,517,518,519,520,521,522,523,524,525,526,527,528,529,530,531,531,532,533,534,535,536,537,538,539,540,541,542,542,543,544,545,546,547,548,549,550,551,552,553,554,555,556,557,558,559,560,561,562,564,566,567,569,570,571,572,573,574,574,575,576,577,579,580,581,582,583,583,584,585,586,588,591,0,0,0,0,0,0,0,0,0,0,0,0,0,0,0,0,0,0,0,0,0,0,0,0,0,0,0,0,0,0,0,0,0,0,0,0,0,0,0,0,0,0,0,0,0,0,0,0,0,0,0,0,0,0,0,0,0,0,0,0,0,0,0,0,0,0,0,0,0,0,0,0,0,0,0,0,0,0,0,0,0,0,0,0,0,0,0,0,0,0,0,0,0,0,0,0,0,0,0,0,0,0,0,0,0,0,0,0,0,0,0,0,0,0,0,0,0,0,0,0,0,0,0,0,0,0,0,0,0,0,0,0,0,0,0,0,0,0,0,0,0,0,0,0,0,0,0,0,0,0
0,0,0,0,0,0,0,0,0,0,0,0,0,0,0,0,0,0,0,0,0,0,0,0,0,0,0,0,0,0,0,0,0,0,0,0,0,0,0,0,0,0,0,0,0,0,0,0,0,0,0,0,0,0,0,0,0,314,314,315,315,316,316,317,316,316,317,317,318,318,319,319,320,320,321,321,321,322,322,323,323,323,324,324,324,325,325,325,326,326,326,327,327,328,328,328,329,329,330,330,331,331,332,332,332,333,333,333,334,334,334,335,335,335,336,336,337,337,337,338,338,338,339,339,339,340,340,341,341,342,342,342,343,343,344,344,345,345,345,346,346,347,347,348,348,349,349,349,350,350,351,351,352,352,353,353,353,354,354,355,355,355,356,356,357,357,358,358,359,359,360,360,361,361,361,362,362,363,363,364,364,365,365,366,366,367,367,368,368,369,369,370,370,371,371,372,372,373,373,374,374,375,375,376,376,377,377,378,378,379,380,380,381,381,382,382,383,383,384,384,385,385,386,386,387,387,388,388,389,389,390,391,391,392,392,393,393,394,394,395,395,396,397,397,398,398,399,399,400,400,401,401,402,403,403,404,404,405,406,406,407,408,408,409,409,410,411,411,411,412,412,413,413,414,415,415,416,417,417,418,418,419,419,420,420,421,422,422,423,423,424,425,425,426,427,427,428,429,429,430,431,431,432,433,433,434,434,435,436,436,437,437,438,439,439,440,441,441,442,443,443,444,445,445,446,447,448,448,449,450,450,451,452,452,453,454,454,455,455,456,456,457,458,459,459,460,461,462,463,463,464,465,465,466,467,468,468,469,470,470,471,472,473,473,474,475,475,476,477,477,478,479,480,480,481,482,483,483,484,485,486,487,487,488,489,490,491,491,492,493,494,495,496,496,497,498,499,500,500,501,502,503,504,504,505,506,507,508,509,510,511,511,512,513,514,515,516,516,517,518,519,520,521,522,523,524,525,526,527,528,529,530,531,532,532,533,534,535,536,537,538,539,540,541,542,542,543,544,545,546,547,548,549,550,551,552,553,554,555,556,557,558,559,560,561,563,564,566,567,568,570,571,572,573,574,574,575,576,577,579,580,581,582,583,583,584,585,586,588,591,0,0,0,0,0,0,0,0,0,0,0,0,0,0,0,0,0,0,0,0,0,0,0,0,0,0,0,0,0,0,0,0,0,0,0,0,0,0,0,0,0,0,0,0,0,0,0,0,0,0,0,0,0,0,0,0,0,0,0,0,0,0,0,0,0,0,0,0,0,0,0,0,0,0,0,0,0,0,0,0,0,0,0,0,0,0,0,0,0,0,0,0,0,0,0,0,0,0,0,0,0,0,0,0,0,0,0,0,0,0,0,0,0,0,0,0,0,0,0,0,0,0,0,0,0,0,0,0,0,0,0,0,0,0,0,0,0,0,0,0,0,0,0,0,0,0,0,0,0,0
0,0,0,0,0,0,0,0,0,0,0,0,0,0,0,0,0,0,0,0,0,0,0,0,0,0,0,0,0,0,0,0,0,0,0,0,0,0,0,0,0,0,0,0,0,0,0,0,0,0,0,0,0,0,0,0,0,0,0,0,0,0,0,0,0,316,317,318,318,319,319,320,320,321,321,321,322,322,322,323,323,323,324,324,324,325,325,325,326,326,327,327,327,328,328,329,329,330,330,331,331,331,332,332,333,333,333,333,334,334,334,335,335,336,336,336,337,337,337,338,338,339,339,339,340,340,340,341,341,342,342,343,343,344,344,344,345,345,346,346,347,347,347,348,348,349,349,349,350,350,351,351,352,352,353,353,354,354,354,355,355,356,356,356,357,357,358,358,359,359,360,360,361,361,361,362,362,363,363,364,364,365,365,366,367,367,368,368,368,369,369,370,370,371,371,372,372,373,373,374,374,375,375,376,376,377,377,378,378,379,380,380,381,381,382,382,383,383,384,384,385,385,386,386,387,387,388,388,389,389,390,391,391,392,392,393,393,394,394,395,395,396,397,397,398,398,399,399,400,400,401,401,402,402,403,404,404,405,406,406,407,408,408,409,409,410,411,411,411,412,412,413,413,414,415,415,416,417,417,418,418,419,419,420,420,421,422,422,423,423,424,425,425,426,427,427,428,429,429,430,431,431,432,433,433,434,434,435,436,436,437,437,438,439,439,440,441,441,442,443,443,444,445,445,446,447,448,448,449,450,450,451,452,452,453,454,454,455,455,456,456,457,458,458,459,460,461,462,462,463,464,465,465,466,467,468,468,469,470,470,471,472,472,473,474,475,475,476,477,477,478,479,480,480,481,482,483,483,484,485,486,487,487,488,489,490,490,491,492,493,494,495,495,496,497,498,499,499,500,501,502,503,504,504,505,506,507,508,509,510,511,511,512,513,514,515,516,517,517,518,519,520,521,522,523,524,525,526,527,528,529,530,531,532,533,533,534,535,536,537,538,539,540,541,542,542,543,544,545,546,547,548,549,550,551,552,553,554,555,556,557,558,559,560,562,563,564,566,567,568,569,571,572,572,573,574,575,576,577,579,580,581,582,583,583,584,585,586,588,592,0,0,0,0,0,0,0,0,0,0,0,0,0,0,0,0,0,0,0,0,0,0,0,0,0,0,0,0,0,0,0,0,0,0,0,0,0,0,0,0,0,0,0,0,0,0,0,0,0,0,0,0,0,0,0,0,0,0,0,0,0,0,0,0,0,0,0,0,0,0,0,0,0,0,0,0,0,0,0,0,0,0,0,0,0,0,0,0,0,0,0,0,0,0,0,0,0,0,0,0,0,0,0,0,0,0,0,0,0,0,0,0,0,0,0,0,0,0,0,0,0,0,0,0,0,0,0,0,0,0,0,0,0,0,0,0,0,0,0,0,0,0,0,0,0,0,0,0,0,0
0,0,0,0,0,0,0,0,0,0,0,0,0,0,0,0,0,0,0,0,0,0,0,0,0,0,0,0,0,0,0,0,0,0,0,0,0,0,0,0,0,0,0,0,0,0,0,0,0,0,0,0,0,0,0,0,0,0,0,0,0,0,0,0,0,0,0,0,0,319,319,320,320,321,321,322,322,322,323,323,323,324,324,324,325,325,325,326,326,326,327,327,328,328,329,329,329,330,330,331,331,332,332,332,333,333,333,334,334,334,335,335,336,336,336,337,337,337,338,338,338,339,339,340,340,340,341,341,341,342,342,343,343,344,344,345,345,345,346,346,347,347,348,348,349,349,349,350,350,351,351,352,352,352,353,353,354,354,354,355,355,356,356,357,357,358,358,358,359,359,360,360,361,361,361,362,363,363,363,364,364,365,365,366,367,367,368,368,368,369,369,370,370,371,371,372,372,373,373,374,374,375,375,376,376,377,377,378,378,379,380,380,381,381,382,382,383,383,384,384,385,385,386,386,387,387,388,388,389,389,390,391,391,392,392,393,393,394,394,395,396,396,397,397,398,398,399,399,400,400,401,401,402,402,403,404,404,405,406,406,407,408,408,409,409,410,411,411,411,412,412,413,414,414,415,415,416,417,417,418,418,419,419,420,421,421,422,422,423,423,424,425,425,426,427,427,428,429,429,430,430,431,432,432,433,434,434,435,435,436,437,437,438,439,439,440,441,441,442,443,443,444,444,445,446,447,447,448,449,450,450,451,452,452,453,454,454,455,455,456,456,457,458,458,459,460,461,462,462,463,464,465,465,466,467,468,468,469,470,470,471,472,472,473,474,475,475,476,477,477,478,479,480,480,481,482,483,483,484,485,486,487,487,488,489,490,491,491,492,493,494,495,495,496,497,498,499,499,500,501,502,503,504,504,505,506,507,508,509,510,511,512,512,513,514,515,516,517,517,518,519,520,521,522,523,524,525,526,527,528,529,530,531,532,533,534,534,535,536,537,538,539,540,541,542,543,543,544,545,546,547,548,549,550,551,552,553,554,555,556,557,558,560,561,562,563,564,566,567,568,569,570,571,572,573,574,575,576,577,578,580,581,582,583,583,584,584,586,589,593,593,0,0,0,0,0,0,0,0,0,0,0,0,0,0,0,0,0,0,0,0,0,0,0,0,0,0,0,0,0,0,0,0,0,0,0,0,0,0,0,0,0,0,0,0,0,0,0,0,0,0,0,0,0,0,0,0,0,0,0,0,0,0,0,0,0,0,0,0,0,0,0,0,0,0,0,0,0,0,0,0,0,0,0,0,0,0,0,0,0,0,0,0,0,0,0,0,0,0,0,0,0,0,0,0,0,0,0,0,0,0,0,0,0,0,0,0,0,0,0,0,0,0,0,0,0,0,0,0,0,0,0,0,0,0,0,0,0,0,0,0,0,0,0,0,0,0,0,0,0
0,0,0,0,0,0,0,0,0,0,0,0,0,0,0,0,0,0,0,0,0,0,0,0,0,0,0,0,0,0,0,0,0,0,0,0,0,0,0,0,0,0,0,0,0,0,0,0,0,0,0,0,0,0,0,0,0,0,0,0,0,0,0,0,0,0,0,0,0,0,0,0,0,0,0,0,0,323,323,323,323,324,324,324,325,325,325,326,326,327,327,328,328,328,329,329,330,330,331,331,331,332,332,333,333,333,333,334,334,335,335,335,336,336,337,337,337,338,338,338,339,339,339,340,340,340,341,341,342,342,343,343,344,344,344,345,345,346,346,347,347,347,348,348,349,349,350,350,350,351,351,352,352,353,353,353,354,354,355,355,355,356,356,357,357,358,358,358,359,359,360,360,361,361,362,362,363,363,364,364,365,365,366,366,367,367,368,368,369,369,369,370,370,371,371,372,372,373,373,374,374,375,375,376,376,377,377,378,378,379,380,380,381,381,382,382,383,383,384,384,385,385,386,386,387,387,388,388,389,389,390,391,391,392,392,393,393,394,395,395,396,396,397,397,398,398,399,399,400,400,401,401,402,402,403,404,404,405,406,406,407,408,408,409,409,410,410,411,411,412,412,413,414,414,415,415,416,417,417,418,418,419,419,420,421,421,422,422,423,424,424,425,426,426,427,427,428,429,429,430,430,431,432,432,433,434,434,435,435,436,437,437,438,438,439,440,441,441,442,442,443,444,444,445,446,447,447,448,449,449,450,451,452,452,453,454,454,455,455,456,456,457,458,458,459,460,461,462,462,463,464,465,466,466,467,468,468,469,470,470,471,472,472,473,474,475,475,476,477,477,478,479,480,480,481,482,483,483,484,485,486,487,487,488,489,490,491,491,492,493,494,494,495,496,497,498,498,499,500,501,502,503,504,504,505,506,507,508,509,510,511,512,512,513,514,515,516,517,518,518,519,520,521,522,523,524,526,526,527,528,529,530,531,532,533,534,534,535,536,537,538,539,540,541,542,543,543,544,545,546,547,548,549,550,551,552,553,554,555,556,557,558,560,561,562,563,564,566,567,568,569,570,571,572,573,574,575,576,577,578,580,581,582,583,583,584,584,586,589,593,594,0,0,0,0,0,0,0,0,0,0,0,0,0,0,0,0,0,0,0,0,0,0,0,0,0,0,0,0,0,0,0,0,0,0,0,0,0,0,0,0,0,0,0,0,0,0,0,0,0,0,0,0,0,0,0,0,0,0,0,0,0,0,0,0,0,0,0,0,0,0,0,0,0,0,0,0,0,0,0,0,0,0,0,0,0,0,0,0,0,0,0,0,0,0,0,0,0,0,0,0,0,0,0,0,0,0,0,0,0,0,0,0,0,0,0,0,0,0,0,0,0,0,0,0,0,0,0,0,0,0,0,0,0,0,0,0,0,0,0,0,0,0,0,0,0,0,0,0,0
0,0,0,0,0,0,0,0,0,0,0,0,0,0,0,0,0,0,0,0,0,0,0,0,0,0,0,0,0,0,0,0,0,0,0,0,0,0,0,0,0,0,0,0,0,0,0,0,0,0,0,0,0,0,0,0,0,0,0,0,0,0,0,0,0,0,0,0,0,0,0,0,0,0,0,0,0,0,0,0,0,0,0,0,325,325,326,326,326,327,327,328,328,329,329,329,330,330,331,331,332,332,333,333,333,333,334,334,334,335,335,336,336,337,337,337,338,338,338,338,339,339,340,340,340,341,341,341,342,342,343,343,344,344,345,345,345,346,346,347,347,348,348,349,349,349,350,350,351,351,352,352,352,353,353,353,354,354,355,355,356,356,356,357,357,358,358,359,359,359,360,360,361,361,362,362,363,363,364,364,365,365,366,366,367,367,368,368,369,369,370,370,370,371,371,372,372,373,373,374,374,375,375,376,376,377,377,378,378,379,380,380,381,381,382,382,383,383,384,384,385,385,386,386,387,387,388,388,389,389,390,391,391,392,392,393,393,394,395,395,396,396,397,397,398,398,399,399,400,400,401,401,402,402,403,404,404,405,406,406,407,408,408,409,409,410,410,411,411,412,412,413,414,414,415,415,416,417,417,418,418,419,419,420,421,421,422,422,423,424,424,425,426,426,427,427,428,428,429,430,430,431,432,432,433,434,434,435,435,436,436,437,438,438,439,440,440,441,442,442,443,444,444,445,446,446,447,448,449,449,450,451,451,452,453,453,454,455,455,456,457,457,458,458,459,460,461,462,462,463,464,465,466,466,467,468,468,469,470,470,471,472,472,473,474,474,475,476,477,477,478,479,480,480,481,482,482,483,484,485,486,487,487,488,489,490,491,491,492,493,494,494,495,496,497,497,498,499,500,501,502,503,504,504,505,506,507,508,509,510,511,512,512,513,514,515,516,517,518,519,520,520,521,522,523,524,526,526,527,528,529,530,531,532,533,534,534,535,536,537,538,539,540,541,542,543,544,544,545,546,547,548,549,550,551,552,553,554,555,556,557,558,560,561,562,563,564,566,567,568,569,570,571,572,573,574,575,576,577,578,580,581,582,583,583,584,584,587,590,593,594,0,0,0,0,0,0,0,0,0,0,0,0,0,0,0,0,0,0,0,0,0,0,0,0,0,0,0,0,0,0,0,0,0,0,0,0,0,0,0,0,0,0,0,0,0,0,0,0,0,0,0,0,0,0,0,0,0,0,0,0,0,0,0,0,0,0,0,0,0,0,0,0,0,0,0,0,0,0,0,0,0,0,0,0,0,0,0,0,0,0,0,0,0,0,0,0,0,0,0,0,0,0,0,0,0,0,0,0,0,0,0,0,0,0,0,0,0,0,0,0,0,0,0,0,0,0,0,0,0,0,0,0,0,0,0,0,0,0,0,0,0,0,0,0,0,0,0,0,0
0,0,0,0,0,0,0,0,0,0,0,0,0,0,0,0,0,0,0,0,0,0,0,0,0,0,0,0,0,0,0,0,0,0,0,0,0,0,0,0,0,0,0,0,0,0,0,0,0,0,0,0,0,0,0,0,0,0,0,0,0,0,0,0,0,0,0,0,0,0,0,0,0,0,0,0,0,0,0,0,0,0,0,0,0,0,0,326,327,327,328,328,329,329,329,330,330,330,331,331,332,332,333,333,333,334,334,334,335,335,336,336,336,337,337,337,338,338,338,339,339,340,340,340,341,341,341,342,342,342,343,343,344,344,345,345,346,346,347,347,347,348,348,349,349,350,350,351,351,351,352,352,353,353,353,354,354,355,355,355,356,356,357,357,357,358,358,359,359,360,360,360,361,361,362,362,363,363,364,364,365,365,366,366,367,367,368,368,369,369,370,370,371,371,371,372,372,373,373,374,374,375,375,376,376,377,377,378,378,379,380,380,381,381,382,382,383,383,384,384,385,385,386,386,387,387,388,388,389,389,390,391,391,392,392,393,394,394,395,395,396,396,397,397,398,398,399,399,400,400,401,401,402,402,403,404,404,405,406,406,407,407,408,409,409,410,410,411,411,412,412,413,414,414,415,415,416,416,417,418,418,419,419,420,421,421,422,422,423,424,424,425,426,426,427,427,428,428,429,430,430,431,432,432,433,433,434,435,435,436,436,437,438,438,439,440,440,441,442,442,443,443,444,445,445,446,447,448,448,449,450,451,451,452,453,453,454,455,455,456,457,457,458,458,459,460,461,462,462,463,464,465,465,466,467,468,468,469,470,470,471,471,472,473,474,474,475,476,476,477,478,479,479,480,481,482,482,483,484,485,486,487,487,488,489,490,491,491,492,493,494,494,495,496,497,497,498,499,500,501,502,503,504,504,505,506,507,508,509,509,511,511,512,513,514,515,516,517,518,519,520,520,521,522,523,524,525,526,527,528,529,530,531,532,533,534,534,535,536,537,538,539,540,541,542,543,544,545,545,546,547,548,549,550,551,551,552,553,555,556,557,558,560,561,562,563,564,565,566,567,568,569,570,571,572,573,574,576,577,578,580,581,582,583,583,584,585,587,590,594,595,0,0,0,0,0,0,0,0,0,0,0,0,0,0,0,0,0,0,0,0,0,0,0,0,0,0,0,0,0,0,0,0,0,0,0,0,0,0,0,0,0,0,0,0,0,0,0,0,0,0,0,0,0,0,0,0,0,0,0,0,0,0,0,0,0,0,0,0,0,0,0,0,0,0,0,0,0,0,0,0,0,0,0,0,0,0,0,0,0,0,0,0,0,0,0,0,0,0,0,0,0,0,0,0,0,0,0,0,0,0,0,0,0,0,0,0,0,0,0,0,0,0,0,0,0,0,0,0,0,0,0,0,0,0,0,0,0,0,0,0,0,0,0,0,0,0,0,0,0
0,0,0,0,0,0,0,0,0,0,0,0,0,0,0,0,0,0,0,0,0,0,0,0,0,0,0,0,0,0,0,0,0,0,0,0,0,0,0,0,0,0,0,0,0,0,0,0,0,0,0,0,0,0,0,0,0,0,0,0,0,0,0,0,0,0,0,0,0,0,0,0,0,0,0,0,0,0,0,0,0,0,0,0,0,0,0,0,0,0,0,0,0,0,0,330,330,331,331,331,332,333,333,333,334,334,334,334,335,335,336,336,337,337,337,338,338,338,339,339,339,340,340,341,341,341,342,342,342,343,343,344,344,345,345,345,346,346,347,347,348,348,349,349,350,350,351,351,351,352,352,352,353,353,354,354,354,355,355,356,356,356,357,357,358,358,358,359,359,360,360,360,361,361,362,362,363,363,364,364,365,365,366,366,367,367,368,368,369,369,370,370,371,371,372,372,372,373,373,374,374,375,375,376,377,377,377,378,379,379,380,380,381,381,382,382,383,383,384,384,385,385,386,386,387,387,388,388,389,389,390,390,391,392,392,393,394,394,395,395,396,396,397,397,398,398,399,399,400,400,401,401,402,402,403,404,404,405,406,406,407,407,408,409,409,410,410,411,411,412,412,413,413,414,415,415,416,416,417,418,418,419,419,420,421,421,422,423,423,424,424,425,426,426,427,427,428,428,429,430,430,431,431,432,433,433,434,435,435,436,436,437,438,438,439,440,440,441,442,442,443,443,444,445,445,446,447,448,448,449,450,450,451,452,452,453,454,455,455,456,457,457,458,459,459,460,461,462,463,463,464,465,465,466,467,468,468,469,469,470,471,471,472,473,473,474,475,476,476,477,478,479,479,480,481,482,482,483,484,485,485,486,487,488,489,490,491,491,492,493,494,494,495,496,496,497,498,499,500,501,502,503,504,504,505,506,507,508,509,509,510,511,512,513,514,515,516,517,518,519,520,520,521,522,523,524,525,526,527,528,529,530,531,532,533,534,534,535,536,537,538,539,540,541,542,543,544,545,545,546,547,548,549,550,551,551,552,553,555,556,557,558,560,561,562,563,564,565,566,567,568,569,570,571,572,573,574,575,577,578,580,581,582,583,583,584,585,587,590,595,596,0,0,0,0,0,0,0,0,0,0,0,0,0,0,0,0,0,0,0,0,0,0,0,0,0,0,0,0,0,0,0,0,0,0,0,0,0,0,0,0,0,0,0,0,0,0,0,0,0,0,0,0,0,0,0,0,0,0,0,0,0,0,0,0,0,0,0,0,0,0,0,0,0,0,0,0,0,0,0,0,0,0,0,0,0,0,0,0,0,0,0,0,0,0,0,0,0,0,0,0,0,0,0,0,0,0,0,0,0,0,0,0,0,0,0,0,0,0,0,0,0,0,0,0,0,0,0,0,0,0,0,0,0,0,0,0,0,0,0,0,0,0,0,0,0,0,0,0,0
0,0,0,0,0,0,0,0,0,0,0,0,0,0,0,0,0,0,0,0,0,0,0,0,0,0,0,0,0,0,0,0,0,0,0,0,0,0,0,0,0,0,0,0,0,0,0,0,0,0,0,0,0,0,0,0,0,0,0,0,0,0,0,0,0,0,0,0,0,0,0,0,0,0,0,0,0,0,0,0,0,0,0,0,0,0,0,0,0,0,0,0,0,0,0,0,0,0,0,331,332,333,333,333,334,334,334,335,335,335,336,336,337,337,338,338,338,338,339,339,340,340,341,341,341,342,342,342,343,343,343,344,344,345,345,346,346,347,347,347,348,348,349,349,350,350,351,351,352,352,352,353,353,353,354,354,355,355,355,356,356,357,357,357,358,358,359,359,359,360,360,361,361,362,362,362,363,363,364,364,365,365,366,367,367,368,368,369,369,369,370,370,371,371,372,372,373,373,374,374,375,375,376,376,377,377,378,378,379,379,380,380,381,381,382,382,383,383,384,384,385,385,386,386,387,387,388,388,389,389,390,390,391,392,392,393,394,394,395,395,396,396,397,397,398,398,399,399,400,400,401,401,402,402,403,404,404,405,406,406,407,407,408,409,409,410,410,411,411,412,412,413,413,414,415,415,416,416,417,418,418,419,419,420,421,421,422,422,423,424,424,425,426,426,427,427,428,428,429,430,430,431,431,432,433,433,434,435,435,436,436,437,438,438,439,440,440,441,441,442,443,443,444,444,445,446,447,447,448,449,450,450,451,452,452,453,454,455,455,456,457,457,458,459,459,460,461,462,463,463,464,465,465,466,467,467,468,469,469,470,471,471,472,473,473,474,475,476,476,477,478,479,479,480,481,482,482,483,484,485,485,486,487,488,489,490,491,491,492,493,494,494,495,496,496,497,498,499,500,501,502,502,503,504,505,506,507,508,509,509,510,511,512,513,514,515,516,517,518,519,519,520,521,522,523,524,525,526,527,528,529,530,531,532,533,534,534,535,536,537,538,539,540,541,542,543,544,545,545,546,547,548,549,550,551,551,552,553,555,556,557,559,560,561,562,563,564,565,566,567,568,569,570,571,572,573,574,575,576,578,579,581,582,583,583,584,585,587,591,596,0,0,0,0,0,0,0,0,0,0,0,0,0,0,0,0,0,0,0,0,0,0,0,0,0,0,0,0,0,0,0,0,0,0,0,0,0,0,0,0,0,0,0,0,0,0,0,0,0,0,0,0,0,0,0,0,0,0,0,0,0,0,0,0,0,0,0,0,0,0,0,0,0,0,0,0,0,0,0,0,0,0,0,0,0,0,0,0,0,0,0,0,0,0,0,0,0,0,0,0,0,0,0,0,0,0,0,0,0,0,0,0,0,0,0,0,0,0,0,0,0,0,0,0,0,0,0,0,0,0,0,0,0,0,0,0,0,0,0,0,0,0,0,0,0,0,0,0,0,0
0,0,0,0,0,0,0,0,0,0,0,0,0,0,0,0,0,0,0,0,0,0,0,0,0,0,0,0,0,0,0,0,0,0,0,0,0,0,0,0,0,0,0,0,0,0,0,0,0,0,0,0,0,0,0,0,0,0,0,0,0,0,0,0,0,0,0,0,0,0,0,0,0,0,0,0,0,0,0,0,0,0,0,0,0,0,0,0,0,0,0,0,0,0,0,0,0,0,0,0,0,0,0,0,0,334,334,335,335,336,336,337,337,337,338,338,338,339,339,339,340,340,341,341,342,342,342,342,343,343,344,344,345,345,346,346,346,347,347,348,348,349,349,350,350,351,351,351,352,352,352,353,353,354,354,355,355,355,356,356,357,357,357,358,358,358,359,359,360,360,360,361,361,362,362,363,363,364,364,365,365,366,366,367,367,368,368,369,369,370,370,370,371,371,372,372,373,373,374,374,375,375,376,376,377,377,378,378,379,379,380,380,381,381,382,382,383,383,384,384,385,385,386,386,387,387,388,388,389,389,390,390,391,392,392,393,394,394,395,395,396,396,397,397,398,398,399,399,400,400,401,401,402,403,403,404,404,405,406,406,407,407,408,408,409,410,410,411,411,412,412,413,413,414,415,415,416,416,417,418,418,419,419,420,421,421,422,422,423,424,424,425,425,426,427,427,428,428,429,429,430,431,431,432,433,433,434,435,435,436,436,437,437,438,439,439,440,441,441,442,442,443,444,444,445,446,447,447,448,449,449,450,451,451,452,453,454,455,455,456,457,457,458,459,459,460,461,462,463,463,464,465,465,466,467,467,468,469,469,470,470,471,472,472,473,474,475,475,476,477,478,478,479,480,481,481,482,483,484,485,485,486,487,488,489,490,490,491,492,493,494,494,495,496,496,497,498,499,500,500,501,502,503,504,505,506,507,508,509,509,510,511,512,513,514,515,516,517,518,519,519,520,521,522,523,524,525,526,527,528,529,530,531,532,533,534,534,535,536,537,538,539,540,541,542,543,544,545,546,546,547,548,549,550,551,552,553,554,555,556,557,559,560,561,562,563,564,565,566,567,568,569,570,571,572,573,574,575,576,578,579,580,581,582,583,584,585,588,592,597,0,0,0,0,0,0,0,0,0,0,0,0,0,0,0,0,0,0,0,0,0,0,0,0,0,0,0,0,0,0,0,0,0,0,0,0,0,0,0,0,0,0,0,0,0,0,0,0,0,0,0,0,0,0,0,0,0,0,0,0,0,0,0,0,0,0,0,0,0,0,0,0,0,0,0,0,0,0,0,0,0,0,0,0,0,0,0,0,0,0,0,0,0,0,0,0,0,0,0,0,0,0,0,0,0,0,0,0,0,0,0,0,0,0,0,0,0,0,0,0,0,0,0,0,0,0,0,0,0,0,0,0,0,0,0,0,0,0,0,0,0,0,0,0,0,0,0,0,0,0
0,0,0,0,0,0,0,0,0,0,0,0,0,0,0,0,0,0,0,0,0,0,0,0,0,0,0,0,0,0,0,0,0,0,0,0,0,0,0,0,0,0,0,0,0,0,0,0,0,0,0,0,0,0,0,0,0,0,0,0,0,0,0,0,0,0,0,0,0,0,0,0,0,0,0,0,0,0,0,0,0,0,0,0,0,0,0,0,0,0,0,0,0,0,0,0,0,0,0,0,0,0,0,0,0,0,0,0,0,0,0,0,0,338,338,338,338,339,339,340,340,341,341,342,342,342,342,343,343,344,344,345,345,346,346,346,347,347,348,348,349,349,350,350,351,351,351,352,352,352,353,353,353,354,354,355,355,356,356,357,357,357,358,358,358,359,359,360,360,360,361,361,362,362,363,363,363,364,364,365,365,366,366,367,368,368,369,369,369,370,370,371,371,371,372,372,373,373,374,374,375,375,376,376,377,377,378,378,379,379,380,380,381,381,382,382,383,383,384,384,385,385,386,386,387,387,388,388,389,389,390,390,391,392,392,393,393,394,395,395,396,396,397,397,398,398,399,399,400,400,401,402,402,403,403,404,404,405,406,406,407,407,408,408,409,410,410,411,411,412,412,413,413,414,415,415,416,416,417,418,418,419,419,420,420,421,422,422,423,424,424,425,425,426,427,427,428,428,429,429,430,431,431,432,433,433,434,434,435,436,436,437,437,438,439,440,440,441,441,442,442,443,444,444,445,446,446,447,448,449,449,450,451,451,452,453,454,455,455,456,457,457,458,459,459,460,461,462,462,463,464,464,465,466,466,467,468,468,469,470,470,471,472,472,473,474,475,475,476,477,478,478,479,480,481,481,482,483,484,485,486,486,487,488,489,490,490,491,492,493,494,494,495,496,496,497,498,499,499,500,501,502,503,504,505,506,507,508,508,509,510,511,512,513,514,515,516,517,518,518,519,520,521,522,523,524,525,526,527,528,529,530,531,532,533,534,534,535,536,537,538,539,540,541,542,543,544,545,546,546,547,548,549,550,551,552,553,554,555,556,558,559,560,561,562,563,564,565,566,567,568,569,570,571,572,573,574,575,576,577,579,580,581,582,583,584,585,588,593,598,0,0,0,0,0,0,0,0,0,0,0,0,0,0,0,0,0,0,0,0,0,0,0,0,0,0,0,0,0,0,0,0,0,0,0,0,0,0,0,0,0,0,0,0,0,0,0,0,0,0,0,0,0,0,0,0,0,0,0,0,0,0,0,0,0,0,0,0,0,0,0,0,0,0,0,0,0,0,0,0,0,0,0,0,0,0,0,0,0,0,0,0,0,0,0,0,0,0,0,0,0,0,0,0,0,0,0,0,0,0,0,0,0,0,0,0,0,0,0,0,0,0,0,0,0,0,0,0,0,0,0,0,0,0,0,0,0,0,0,0,0,0,0,0,0,0,0,0,0,0
0,0,0,0,0,0,0,0,0,0,0,0,0,0,0,0,0,0,0,0,0,0,0,0,0,0,0,0,0,0,0,0,0,0,0,0,0,0,0,0,0,0,0,0,0,0,0,0,0,0,0,0,0,0,0,0,0,0,0,0,0,0,0,0,0,0,0,0,0,0,0,0,0,0,0,0,0,0,0,0,0,0,0,0,0,0,0,0,0,0,0,0,0,0,0,0,0,0,0,0,0,0,0,0,0,0,0,0,0,0,0,0,0,0,0,0,0,0,0,340,340,341,341,342,342,342,343,343,343,344,344,345,345,346,346,347,347,348,348,349,349,349,350,350,351,351,352,352,352,353,353,353,354,354,355,355,356,356,356,357,357,357,358,358,359,359,359,360,360,361,361,361,362,362,363,363,364,364,365,365,366,366,367,367,368,368,369,369,369,370,370,371,371,372,372,372,373,373,374,374,375,376,376,376,377,377,378,378,379,379,380,380,381,381,382,382,383,383,384,384,385,385,386,386,387,387,388,388,389,389,390,390,391,392,392,393,393,394,395,395,396,396,397,397,398,398,399,399,400,401,401,402,402,403,403,404,404,405,406,406,407,407,408,408,409,409,410,410,411,412,412,413,413,414,414,415,416,416,417,418,418,419,419,420,420,421,422,422,423,423,424,425,425,426,427,427,428,428,429,429,430,431,431,432,433,433,434,434,435,436,436,437,437,438,439,439,440,441,441,442,442,443,444,444,445,446,446,447,448,448,449,450,450,451,452,453,454,455,455,456,457,457,458,459,459,460,461,462,462,463,464,464,465,466,466,467,468,468,469,469,470,471,471,472,473,474,475,475,476,477,478,478,479,480,481,481,482,483,484,485,486,486,487,488,489,490,491,491,492,493,494,494,495,496,496,497,498,499,499,500,501,502,503,504,505,506,507,508,508,509,510,511,512,513,514,515,516,517,518,518,519,520,521,522,522,523,524,525,527,528,529,530,531,532,533,534,534,535,536,537,538,539,540,541,542,543,544,545,545,546,547,548,549,550,551,552,553,554,555,556,558,559,560,561,562,563,564,565,566,567,568,569,570,571,572,573,574,575,576,577,579,580,581,582,583,584,585,588,593,598,598,0,0,0,0,0,0,0,0,0,0,0,0,0,0,0,0,0,0,0,0,0,0,0,0,0,0,0,0,0,0,0,0,0,0,0,0,0,0,0,0,0,0,0,0,0,0,0,0,0,0,0,0,0,0,0,0,0,0,0,0,0,0,0,0,0,0,0,0,0,0,0,0,0,0,0,0,0,0,0,0,0,0,0,0,0,0,0,0,0,0,0,0,0,0,0,0,0,0,0,0,0,0,0,0,0,0,0,0,0,0,0,0,0,0,0,0,0,0,0,0,0,0,0,0,0,0,0,0,0,0,0,0,0,0,0,0,0,0,0,0,0,0,0,0,0,0,0,0,0
0,0,0,0,0,0,0,0,0,0,0,0,0,0,0,0,0,0,0,0,0,0,0,0,0,0,0,0,0,0,0,0,0,0,0,0,0,0,0,0,0,0,0,0,0,0,0,0,0,0,0,0,0,0,0,0,0,0,0,0,0,0,0,0,0,0,0,0,0,0,0,0,0,0,0,0,0,0,0,0,0,0,0,0,0,0,0,0,0,0,0,0,0,0,0,0,0,0,0,0,0,0,0,0,0,0,0,0,0,0,0,0,0,0,0,0,0,0,0,0,0,0,0,0,342,343,343,343,344,344,345,345,346,346,347,347,348,348,348,349,349,350,350,351,351,352,352,352,352,353,353,354,354,355,355,355,356,356,357,357,357,358,358,358,359,359,360,360,361,361,361,362,362,363,363,364,364,364,365,365,366,366,367,367,368,368,369,369,370,370,371,371,371,372,372,373,373,374,374,375,375,376,376,377,377,378,378,379,379,380,380,380,381,382,382,382,383,384,384,385,385,386,386,387,387,387,388,388,389,389,390,390,391,392,392,393,393,394,395,395,396,396,397,397,398,398,399,399,400,401,401,402,402,403,403,404,404,405,406,406,407,407,408,408,409,409,410,410,411,411,412,413,413,414,414,415,416,416,417,417,418,419,419,420,420,421,421,422,423,423,424,425,425,426,427,427,428,428,429,429,430,431,431,432,433,433,434,434,435,436,436,437,437,438,439,440,440,441,441,442,442,443,444,444,445,446,446,447,448,448,449,450,450,451,452,453,454,454,455,456,457,457,458,459,459,460,461,461,462,463,464,464,465,466,466,467,467,468,469,469,470,471,471,472,473,474,475,475,476,477,478,478,479,480,481,481,482,483,484,485,486,487,487,488,489,490,491,492,492,493,494,494,495,496,496,497,498,499,499,500,501,502,503,504,505,506,507,508,508,509,510,511,512,513,514,515,516,517,518,518,519,520,521,522,522,523,524,525,526,528,529,530,531,532,533,533,534,535,536,537,538,539,540,541,542,543,544,545,545,546,547,548,549,550,551,552,553,554,555,556,558,559,560,561,562,563,564,565,566,567,568,569,570,571,572,573,573,575,576,577,579,580,581,582,583,584,585,588,593,597,598,0,0,0,0,0,0,0,0,0,0,0,0,0,0,0,0,0,0,0,0,0,0,0,0,0,0,0,0,0,0,0,0,0,0,0,0,0,0,0,0,0,0,0,0,0,0,0,0,0,0,0,0,0,0,0,0,0,0,0,0,0,0,0,0,0,0,0,0,0,0,0,0,0,0,0,0,0,0,0,0,0,0,0,0,0,0,0,0,0,0,0,0,0,0,0,0,0,0,0,0,0,0,0,0,0,0,0,0,0,0,0,0,0,0,0,0,0,0,0,0,0,0,0,0,0,0,0,0,0,0,0,0,0,0,0,0,0,0,0,0,0,0,0,0,0,0,0,0,0
0,0,0,0,0,0,0,0,0,0,0,0,0,0,0,0,0,0,0,0,0,0,0,0,0,0,0,0,0,0,0,0,0,0,0,0,0,0,0,0,0,0,0,0,0,0,0,0,0,0,0,0,0,0,0,0,0,0,0,0,0,0,0,0,0,0,0,0,0,0,0,0,0,0,0,0,0,0,0,0,0,0,0,0,0,0,0,0,0,0,0,0,0,0,0,0,0,0,0,0,0,0,0,0,0,0,0,0,0,0,0,0,0,0,0,0,0,0,0,0,0,0,0,0,0,0,0,0,0,345,345,345,346,347,347,348,348,348,349,349,350,350,351,351,352,352,352,352,353,353,353,354,354,355,355,356,356,357,357,357,358,358,358,359,359,360,360,360,361,361,362,362,363,363,363,364,364,365,365,366,366,367,367,368,368,369,369,370,370,370,371,371,372,372,372,373,373,374,374,375,375,376,376,377,377,378,378,379,379,380,380,381,381,382,382,383,383,384,384,385,385,386,386,387,387,388,388,389,389,389,390,390,391,392,392,393,393,394,395,395,396,396,397,397,398,398,399,399,400,401,401,402,402,403,403,404,404,405,406,406,407,407,408,408,409,409,410,410,411,411,412,413,413,414,414,415,416,416,417,417,418,419,419,420,420,421,421,422,423,423,424,425,425,426,427,427,428,428,429,429,430,431,431,432,433,433,434,434,435,436,436,437,437,438,439,440,440,441,441,442,443,443,444,444,445,446,446,447,448,448,449,450,450,451,452,453,454,454,455,456,457,457,458,458,459,460,461,461,462,463,463,464,465,465,466,467,467,468,469,469,470,471,471,472,473,474,475,475,476,477,478,478,479,480,481,481,482,483,484,485,486,487,487,488,489,490,491,492,492,493,494,494,495,496,497,497,498,499,499,500,501,502,503,504,505,506,507,508,509,509,510,511,512,513,514,515,516,517,518,518,519,520,521,521,522,523,524,525,526,527,528,530,531,532,533,533,534,535,536,537,538,539,540,541,542,543,543,544,545,546,547,548,549,550,551,552,553,554,555,557,558,559,560,561,562,563,564,565,566,567,568,569,570,571,572,573,574,575,576,577,579,580,581,582,583,584,585,588,593,597,598,0,0,0,0,0,0,0,0,0,0,0,0,0,0,0,0,0,0,0,0,0,0,0,0,0,0,0,0,0,0,0,0,0,0,0,0,0,0,0,0,0,0,0,0,0,0,0,0,0,0,0,0,0,0,0,0,0,0,0,0,0,0,0,0,0,0,0,0,0,0,0,0,0,0,0,0,0,0,0,0,0,0,0,0,0,0,0,0,0,0,0,0,0,0,0,0,0,0,0,0,0,0,0,0,0,0,0,0,0,0,0,0,0,0,0,0,0,0,0,0,0,0,0,0,0,0,0,0,0,0,0,0,0,0,0,0,0,0,0,0,0,0,0,0,0,0,0,0,0
0,0,0,0,0,0,0,0,0,0,0,0,0,0,0,0,0,0,0,0,0,0,0,0,0,0,0,0,0,0,0,0,0,0,0,0,0,0,0,0,0,0,0,0,0,0,0,0,0,0,0,0,0,0,0,0,0,0,0,0,0,0,0,0,0,0,0,0,0,0,0,0,0,0,0,0,0,0,0,0,0,0,0,0,0,0,0,0,0,0,0,0,0,0,0,0,0,0,0,0,0,0,0,0,0,0,0,0,0,0,0,0,0,0,0,0,0,0,0,0,0,0,0,0,0,0,0,0,0,0,0,0,0,0,0,348,348,349,349,349,350,351,351,351,352,352,352,353,353,353,354,354,355,355,356,356,356,357,357,357,358,358,358,359,359,360,360,361,361,362,362,362,363,363,364,364,365,365,365,366,366,367,367,368,368,369,369,370,370,371,371,371,372,372,373,373,374,374,375,375,376,376,377,377,378,378,378,379,379,380,380,381,381,382,382,383,383,384,384,385,385,386,386,387,387,388,388,389,389,390,390,391,391,392,392,393,393,394,395,395,396,396,397,397,398,398,399,400,400,401,401,402,402,403,403,404,405,405,406,406,407,407,408,408,409,409,410,410,411,411,412,413,413,414,414,415,416,416,417,417,418,419,419,420,420,421,421,422,423,423,424,425,425,426,427,427,428,428,429,430,430,431,431,432,433,433,434,434,435,436,436,437,438,438,439,440,440,441,441,442,443,443,444,444,445,446,446,447,448,448,449,450,450,451,452,453,453,454,455,456,456,457,458,458,459,460,460,461,462,463,463,464,465,465,466,467,467,468,469,469,470,471,471,472,473,474,475,475,476,477,478,478,479,480,481,481,482,483,484,485,486,486,487,488,489,490,491,492,492,493,494,495,495,496,497,497,498,499,499,500,501,502,503,504,505,506,507,508,509,509,510,511,512,513,514,515,516,517,518,518,519,520,521,521,522,523,524,525,526,527,528,529,530,532,532,533,534,535,536,537,538,539,540,541,542,543,543,544,545,546,547,548,549,550,551,552,553,554,555,557,558,559,560,561,562,563,564,565,566,568,569,570,570,571,572,573,574,575,576,577,578,580,581,582,583,584,585,588,592,597,597,0,0,0,0,0,0,0,0,0,0,0,0,0,0,0,0,0,0,0,0,0,0,0,0,0,0,0,0,0,0,0,0,0,0,0,0,0,0,0,0,0,0,0,0,0,0,0,0,0,0,0,0,0,0,0,0,0,0,0,0,0,0,0,0,0,0,0,0,0,0,0,0,0,0,0,0,0,0,0,0,0,0,0,0,0,0,0,0,0,0,0,0,0,0,0,0,0,0,0,0,0,0,0,0,0,0,0,0,0,0,0,0,0,0,0,0,0,0,0,0,0,0,0,0,0,0,0,0,0,0,0,0,0,0,0,0,0,0,0,0,0,0,0,0,0,0,0,0,0
0,0,0,0,0,0,0,0,0,0,0,0,0,0,0,0,0,0,0,0,0,0,0,0,0,0,0,0,0,0,0,0,0,0,0,0,0,0,0,0,0,0,0,0,0,0,0,0,0,0,0,0,0,0,0,0,0,0,0,0,0,0,0,0,0,0,0,0,0,0,0,0,0,0,0,0,0,0,0,0,0,0,0,0,0,0,0,0,0,0,0,0,0,0,0,0,0,0,0,0,0,0,0,0,0,0,0,0,0,0,0,0,0,0,0,0,0,0,0,0,0,0,0,0,0,0,0,0,0,0,0,0,0,0,0,0,0,0,0,0,0,351,351,352,352,352,352,353,353,354,354,354,355,355,356,356,357,357,357,358,358,358,359,359,360,360,361,361,362,362,362,363,363,364,364,364,365,365,366,366,367,367,368,368,369,369,370,370,370,371,371,372,372,372,373,373,374,374,375,375,376,376,377,377,378,378,379,379,380,380,381,381,382,382,383,383,384,384,385,385,386,386,386,387,387,388,388,389,389,390,390,391,391,392,392,393,394,394,395,395,396,396,397,397,398,399,399,400,400,401,401,402,403,403,404,404,405,405,406,406,407,407,408,408,409,409,410,410,411,412,412,413,413,414,414,415,416,416,417,417,418,419,419,420,420,421,421,422,422,423,424,425,425,426,427,427,428,428,429,430,430,431,431,432,433,433,434,434,435,436,436,437,438,438,439,440,440,441,442,442,443,443,444,444,445,446,446,447,448,448,449,450,450,451,452,452,453,454,455,456,456,457,458,458,459,460,460,461,462,463,463,464,465,465,466,467,467,468,469,469,470,471,471,472,473,474,475,476,476,477,478,478,479,480,481,481,482,483,484,485,486,486,487,488,489,490,490,491,492,493,494,495,495,496,497,497,498,499,499,500,501,502,503,504,505,506,507,508,509,509,510,511,512,513,514,515,516,517,518,518,519,520,520,521,522,523,524,525,526,527,528,529,530,531,532,533,534,535,536,537,538,539,540,541,542,542,543,544,545,546,547,548,549,550,551,552,553,554,556,557,558,559,560,561,562,563,564,565,567,568,569,570,571,571,572,573,574,575,576,577,579,580,581,582,583,584,585,587,592,596,597,0,0,0,0,0,0,0,0,0,0,0,0,0,0,0,0,0,0,0,0,0,0,0,0,0,0,0,0,0,0,0,0,0,0,0,0,0,0,0,0,0,0,0,0,0,0,0,0,0,0,0,0,0,0,0,0,0,0,0,0,0,0,0,0,0,0,0,0,0,0,0,0,0,0,0,0,0,0,0,0,0,0,0,0,0,0,0,0,0,0,0,0,0,0,0,0,0,0,0,0,0,0,0,0,0,0,0,0,0,0,0,0,0,0,0,0,0,0,0,0,0,0,0,0,0,0,0,0,0,0,0,0,0,0,0,0,0,0,0,0,0,0,0,0,0,0,0,0,0
0,0,0,0,0,0,0,0,0,0,0,0,0,0,0,0,0,0,0,0,0,0,0,0,0,0,0,0,0,0,0,0,0,0,0,0,0,0,0,0,0,0,0,0,0,0,0,0,0,0,0,0,0,0,0,0,0,0,0,0,0,0,0,0,0,0,0,0,0,0,0,0,0,0,0,0,0,0,0,0,0,0,0,0,0,0,0,0,0,0,0,0,0,0,0,0,0,0,0,0,0,0,0,0,0,0,0,0,0,0,0,0,0,0,0,0,0,0,0,0,0,0,0,0,0,0,0,0,0,0,0,0,0,0,0,0,0,0,0,0,0,0,0,0,0,0,0,0,0,354,354,355,355,356,356,356,357,357,357,358,358,358,359,360,360,361,361,361,362,362,363,363,363,364,364,365,365,366,366,366,367,367,368,368,369,369,370,370,371,371,371,372,372,373,373,373,374,374,375,376,376,377,377,378,378,378,379,379,380,380,381,381,382,382,383,383,384,384,385,385,386,386,387,387,388,388,388,389,389,390,390,391,391,392,392,393,394,394,395,395,396,396,397,398,398,399,399,400,400,401,402,402,403,403,404,404,405,405,406,406,407,407,408,408,409,409,410,411,411,412,412,413,413,414,415,415,416,416,417,417,418,419,419,420,420,421,421,422,422,423,424,425,425,426,427,427,428,428,429,430,430,431,431,432,433,433,434,434,435,436,436,437,438,438,439,440,440,441,442,442,443,443,444,444,445,446,446,447,448,448,449,450,450,451,452,452,453,454,455,456,456,457,458,458,459,460,460,461,462,463,463,464,465,465,466,467,467,468,469,469,470,471,471,472,473,474,475,476,476,477,478,478,479,480,481,481,482,483,484,485,485,486,487,488,489,490,490,491,492,493,494,495,495,496,497,497,498,499,499,500,501,502,503,504,505,506,507,508,509,509,510,511,512,513,514,515,516,517,518,518,519,520,520,521,522,523,524,525,526,527,528,529,530,531,532,533,534,535,536,537,538,539,540,540,541,542,543,544,545,546,547,548,549,550,551,552,553,554,556,557,558,559,560,561,562,563,564,566,567,568,569,570,571,572,572,573,574,575,576,577,579,580,581,582,583,584,585,587,590,592,596,0,0,0,0,0,0,0,0,0,0,0,0,0,0,0,0,0,0,0,0,0,0,0,0,0,0,0,0,0,0,0,0,0,0,0,0,0,0,0,0,0,0,0,0,0,0,0,0,0,0,0,0,0,0,0,0,0,0,0,0,0,0,0,0,0,0,0,0,0,0,0,0,0,0,0,0,0,0,0,0,0,0,0,0,0,0,0,0,0,0,0,0,0,0,0,0,0,0,0,0,0,0,0,0,0,0,0,0,0,0,0,0,0,0,0,0,0,0,0,0,0,0,0,0,0,0,0,0,0,0,0,0,0,0,0,0,0,0,0,0,0,0,0,0,0,0,0,0,0
0,0,0,0,0,0,0,0,0,0,0,0,0,0,0,0,0,0,0,0,0,0,0,0,0,0,0,0,0,0,0,0,0,0,0,0,0,0,0,0,0,0,0,0,0,0,0,0,0,0,0,0,0,0,0,0,0,0,0,0,0,0,0,0,0,0,0,0,0,0,0,0,0,0,0,0,0,0,0,0,0,0,0,0,0,0,0,0,0,0,0,0,0,0,0,0,0,0,0,0,0,0,0,0,0,0,0,0,0,0,0,0,0,0,0,0,0,0,0,0,0,0,0,0,0,0,0,0,0,0,0,0,0,0,0,0,0,0,0,0,0,0,0,0,0,0,0,0,0,0,0,0,0,0,0,357,357,357,358,358,358,358,359,360,360,361,361,362,362,363,363,363,364,364,364,365,365,366,366,367,367,368,368,369,369,370,370,371,371,371,372,372,372,373,373,374,374,375,375,376,376,377,377,378,378,379,379,380,380,381,381,382,382,383,383,384,384,385,385,386,386,386,387,387,388,388,389,389,390,390,391,391,392,392,393,393,394,394,395,396,396,397,397,398,398,399,399,400,401,401,402,402,403,403,404,404,405,405,406,406,407,408,408,408,409,410,410,411,411,412,412,413,413,414,415,415,416,416,417,417,418,419,419,420,420,421,421,422,422,423,424,425,425,426,427,427,428,428,429,430,430,431,431,432,433,433,434,434,435,436,436,437,438,438,439,440,440,441,442,442,443,443,444,444,445,446,446,447,448,448,449,450,450,451,452,452,453,454,455,456,456,457,458,458,459,459,460,461,462,463,463,464,465,465,466,467,467,468,469,469,470,471,471,472,473,474,475,476,476,477,478,478,479,480,480,481,482,483,484,485,485,486,487,488,489,490,490,491,492,493,494,495,495,496,497,497,498,499,500,500,501,502,503,504,505,506,507,508,509,509,510,511,512,513,514,515,516,517,517,518,519,520,520,521,522,523,524,525,526,527,528,529,530,531,532,533,534,535,536,537,538,539,540,540,541,542,543,544,545,546,547,548,549,550,551,552,553,554,555,557,558,559,560,561,562,563,564,566,567,568,569,570,571,572,573,574,575,576,577,578,579,580,581,582,583,584,585,586,588,591,592,0,0,0,0,0,0,0,0,0,0,0,0,0,0,0,0,0,0,0,0,0,0,0,0,0,0,0,0,0,0,0,0,0,0,0,0,0,0,0,0,0,0,0,0,0,0,0,0,0,0,0,0,0,0,0,0,0,0,0,0,0,0,0,0,0,0,0,0,0,0,0,0,0,0,0,0,0,0,0,0,0,0,0,0,0,0,0,0,0,0,0,0,0,0,0,0,0,0,0,0,0,0,0,0,0,0,0,0,0,0,0,0,0,0,0,0,0,0,0,0,0,0,0,0,0,0,0,0,0,0,0,0,0,0,0,0,0,0,0,0,0,0,0,0,0,0,0,0,0
0,0,0,0,0,0,0,0,0,0,0,0,0,0,0,0,0,0,0,0,0,0,0,0,0,0,0,0,0,0,0,0,0,0,0,0,0,0,0,0,0,0,0,0,0,0,0,0,0,0,0,0,0,0,0,0,0,0,0,0,0,0,0,0,0,0,0,0,0,0,0,0,0,0,0,0,0,0,0,0,0,0,0,0,0,0,0,0,0,0,0,0,0,0,0,0,0,0,0,0,0,0,0,0,0,0,0,0,0,0,0,0,0,0,0,0,0,0,0,0,0,0,0,0,0,0,0,0,0,0,0,0,0,0,0,0,0,0,0,0,0,0,0,0,0,0,0,0,0,0,0,0,0,0,0,0,0,0,0,0,0,0,0,0,361,361,362,362,362,363,363,363,364,364,365,365,366,366,367,367,367,368,368,369,369,370,370,371,371,372,372,372,373,373,374,374,374,375,375,376,377,377,377,378,378,379,379,380,380,381,381,382,382,383,383,384,384,385,385,386,386,387,387,388,388,388,389,389,390,390,391,391,392,392,393,393,394,395,395,396,396,397,397,398,398,399,400,400,401,401,402,402,403,403,404,404,405,405,406,407,407,408,408,409,409,410,410,411,411,412,412,413,414,414,415,415,416,416,417,417,418,419,419,420,420,421,421,422,422,423,424,425,425,426,427,427,428,428,429,430,430,431,432,432,433,433,434,434,435,436,436,437,438,438,439,440,440,441,442,442,443,443,444,445,445,446,446,447,448,448,449,450,450,451,452,453,453,454,455,456,456,457,458,458,459,459,460,461,462,462,463,464,465,465,466,467,467,468,469,469,470,471,471,472,473,474,475,476,476,477,478,478,479,480,480,481,482,483,484,485,485,486,487,488,489,489,490,491,492,493,494,495,495,496,497,497,498,499,500,500,501,502,503,504,505,506,507,508,509,509,510,511,512,513,514,515,516,517,517,518,519,520,520,521,522,523,524,525,526,527,528,529,530,531,532,533,534,535,536,537,538,539,540,540,541,542,543,544,545,546,547,548,549,550,551,552,553,554,555,557,558,559,560,561,562,563,564,566,567,568,569,570,571,572,573,574,575,576,577,578,579,580,581,582,583,584,585,586,587,588,590,0,0,0,0,0,0,0,0,0,0,0,0,0,0,0,0,0,0,0,0,0,0,0,0,0,0,0,0,0,0,0,0,0,0,0,0,0,0,0,0,0,0,0,0,0,0,0,0,0,0,0,0,0,0,0,0,0,0,0,0,0,0,0,0,0,0,0,0,0,0,0,0,0,0,0,0,0,0,0,0,0,0,0,0,0,0,0,0,0,0,0,0,0,0,0,0,0,0,0,0,0,0,0,0,0,0,0,0,0,0,0,0,0,0,0,0,0,0,0,0,0,0,0,0,0,0,0,0,0,0,0,0,0,0,0,0,0,0,0,0,0,0,0,0,0,0,0,0,0
0,0,0,0,0,0,0,0,0,0,0,0,0,0,0,0,0,0,0,0,0,0,0,0,0,0,0,0,0,0,0,0,0,0,0,0,0,0,0,0,0,0,0,0,0,0,0,0,0,0,0,0,0,0,0,0,0,0,0,0,0,0,0,0,0,0,0,0,0,0,0,0,0,0,0,0,0,0,0,0,0,0,0,0,0,0,0,0,0,0,0,0,0,0,0,0,0,0,0,0,0,0,0,0,0,0,0,0,0,0,0,0,0,0,0,0,0,0,0,0,0,0,0,0,0,0,0,0,0,0,0,0,0,0,0,0,0,0,0,0,0,0,0,0,0,0,0,0,0,0,0,0,0,0,0,0,0,0,0,0,0,0,0,0,0,0,0,362,363,363,363,364,364,364,365,365,366,366,367,367,367,368,369,369,370,370,371,371,371,372,372,372,373,373,374,374,375,375,376,376,377,377,378,378,379,379,380,380,381,381,382,382,383,383,384,384,385,385,386,386,386,387,387,388,388,389,389,390,390,391,391,392,392,393,393,394,394,395,395,396,396,397,398,398,399,399,400,400,401,401,402,402,403,403,404,405,405,406,406,407,407,408,408,409,409,410,410,411,411,412,413,413,414,414,415,415,416,416,417,418,418,419,419,420,420,421,421,422,422,423,424,425,425,426,427,427,428,428,429,430,430,431,432,432,433,433,434,435,435,436,436,437,437,438,439,439,440,441,442,442,443,443,444,445,445,446,446,447,448,448,449,450,450,451,452,453,453,454,455,456,456,457,457,458,459,459,460,461,462,462,463,464,465,465,466,467,467,468,469,469,470,471,471,472,473,474,475,476,476,477,478,478,479,480,480,481,482,483,484,485,485,486,487,488,489,489,490,491,492,493,494,495,495,496,497,497,498,499,500,500,501,502,503,504,505,506,507,508,509,509,510,511,512,513,514,515,516,516,517,518,519,519,520,521,522,523,524,525,526,527,528,528,530,531,532,533,534,535,536,537,538,539,540,540,541,542,543,544,545,546,547,548,549,550,551,552,553,554,555,556,558,558,560,561,562,563,565,566,567,568,569,570,571,572,573,574,575,576,577,578,579,580,582,583,584,585,585,586,587,588,588,0,0,0,0,0,0,0,0,0,0,0,0,0,0,0,0,0,0,0,0,0,0,0,0,0,0,0,0,0,0,0,0,0,0,0,0,0,0,0,0,0,0,0,0,0,0,0,0,0,0,0,0,0,0,0,0,0,0,0,0,0,0,0,0,0,0,0,0,0,0,0,0,0,0,0,0,0,0,0,0,0,0,0,0,0,0,0,0,0,0,0,0,0,0,0,0,0,0,0,0,0,0,0,0,0,0,0,0,0,0,0,0,0,0,0,0,0,0,0,0,0,0,0,0,0,0,0,0,0,0,0,0,0,0,0,0,0,0,0,0,0,0,0,0,0,0,0,0,0
0,0,0,0,0,0,0,0,0,0,0,0,0,0,0,0,0,0,0,0,0,0,0,0,0,0,0,0,0,0,0,0,0,0,0,0,0,0,0,0,0,0,0,0,0,0,0,0,0,0,0,0,0,0,0,0,0,0,0,0,0,0,0,0,0,0,0,0,0,0,0,0,0,0,0,0,0,0,0,0,0,0,0,0,0,0,0,0,0,0,0,0,0,0,0,0,0,0,0,0,0,0,0,0,0,0,0,0,0,0,0,0,0,0,0,0,0,0,0,0,0,0,0,0,0,0,0,0,0,0,0,0,0,0,0,0,0,0,0,0,0,0,0,0,0,0,0,0,0,0,0,0,0,0,0,0,0,0,0,0,0,0,0,0,0,0,0,0,0,0,0,0,0,0,0,366,366,367,367,367,368,368,369,369,370,370,371,371,372,372,372,373,373,374,374,374,375,375,376,376,377,377,378,378,379,379,380,380,381,382,382,383,383,384,384,384,385,385,386,386,387,387,388,388,389,389,389,390,390,391,391,392,392,393,394,394,395,395,396,396,397,397,398,398,399,399,400,401,401,402,402,403,403,404,404,405,405,406,406,407,407,408,408,409,409,410,411,411,412,412,413,413,414,414,415,415,416,416,417,418,418,419,419,420,420,421,421,422,423,423,424,425,425,426,427,427,428,428,429,430,430,431,432,432,433,434,434,435,435,436,436,437,437,438,439,439,440,441,442,442,443,444,444,445,445,446,446,447,448,449,449,450,451,451,452,453,453,454,455,456,456,457,457,458,459,459,460,461,462,462,463,464,465,465,466,467,467,468,469,469,470,471,471,472,473,474,475,476,476,477,478,478,479,480,481,481,482,483,484,485,485,486,487,488,488,489,490,491,492,493,494,494,495,496,497,497,498,499,500,500,501,502,503,504,505,506,507,508,509,509,510,511,512,513,514,515,516,516,517,518,519,519,520,521,522,523,524,525,526,527,528,528,529,531,532,533,534,535,536,537,538,539,540,541,542,543,543,544,545,546,547,548,549,550,551,552,553,554,555,556,558,558,560,561,562,563,565,566,567,569,570,570,571,572,573,574,575,576,577,578,579,581,582,583,584,585,586,586,587,588,0,0,0,0,0,0,0,0,0,0,0,0,0,0,0,0,0,0,0,0,0,0,0,0,0,0,0,0,0,0,0,0,0,0,0,0,0,0,0,0,0,0,0,0,0,0,0,0,0,0,0,0,0,0,0,0,0,0,0,0,0,0,0,0,0,0,0,0,0,0,0,0,0,0,0,0,0,0,0,0,0,0,0,0,0,0,0,0,0,0,0,0,0,0,0,0,0,0,0,0,0,0,0,0,0,0,0,0,0,0,0,0,0,0,0,0,0,0,0,0,0,0,0,0,0,0,0,0,0,0,0,0,0,0,0,0,0,0,0,0,0,0,0,0,0,0,0,0,0,0
0,0,0,0,0,0,0,0,0,0,0,0,0,0,0,0,0,0,0,0,0,0,0,0,0,0,0,0,0,0,0,0,0,0,0,0,0,0,0,0,0,0,0,0,0,0,0,0,0,0,0,0,0,0,0,0,0,0,0,0,0,0,0,0,0,0,0,0,0,0,0,0,0,0,0,0,0,0,0,0,0,0,0,0,0,0,0,0,0,0,0,0,0,0,0,0,0,0,0,0,0,0,0,0,0,0,0,0,0,0,0,0,0,0,0,0,0,0,0,0,0,0,0,0,0,0,0,0,0,0,0,0,0,0,0,0,0,0,0,0,0,0,0,0,0,0,0,0,0,0,0,0,0,0,0,0,0,0,0,0,0,0,0,0,0,0,0,0,0,0,0,0,0,0,0,0,0,0,0,0,0,0,0,369,370,370,371,371,372,372,373,373,373,374,374,374,375,375,376,376,377,377,378,378,379,379,380,381,381,382,382,383,383,384,384,385,385,386,386,386,387,387,388,388,389,389,390,390,391,391,392,392,393,393,394,394,395,395,396,396,397,398,398,399,399,400,400,401,401,402,402,403,403,404,404,405,405,406,406,407,407,408,409,409,410,410,411,411,412,412,413,413,414,414,415,415,416,416,417,418,418,419,419,420,420,421,421,422,423,423,424,425,425,426,427,427,428,429,429,430,430,431,432,432,433,434,434,435,435,436,436,437,437,438,439,439,440,441,442,442,443,444,444,445,445,446,447,447,448,449,449,450,451,451,452,453,454,454,455,456,456,457,457,458,459,459,460,461,462,462,463,464,465,465,466,467,467,468,469,469,470,471,471,472,473,474,475,476,476,477,478,479,479,480,481,481,482,483,484,485,485,486,487,488,488,489,490,491,492,493,493,494,495,496,497,497,498,499,500,500,501,502,503,504,505,506,507,508,509,509,510,511,512,513,514,515,515,516,517,518,519,520,520,521,522,523,524,525,526,527,527,528,529,530,532,533,534,535,536,537,538,539,540,541,542,543,544,545,546,546,547,548,549,550,551,552,553,555,555,556,558,558,560,561,562,563,565,566,568,569,570,571,571,572,573,574,575,576,577,578,580,581,582,583,584,585,586,587,587,0,0,0,0,0,0,0,0,0,0,0,0,0,0,0,0,0,0,0,0,0,0,0,0,0,0,0,0,0,0,0,0,0,0,0,0,0,0,0,0,0,0,0,0,0,0,0,0,0,0,0,0,0,0,0,0,0,0,0,0,0,0,0,0,0,0,0,0,0,0,0,0,0,0,0,0,0,0,0,0,0,0,0,0,0,0,0,0,0,0,0,0,0,0,0,0,0,0,0,0,0,0,0,0,0,0,0,0,0,0,0,0,0,0,0,0,0,0,0,0,0,0,0,0,0,0,0,0,0,0,0,0,0,0,0,0,0,0,0,0,0,0,0,0,0,0,0,0,0,0,0
0,0,0,0,0,0,0,0,0,0,0,0,0,0,0,0,0,0,0,0,0,0,0,0,0,0,0,0,0,0,0,0,0,0,0,0,0,0,0,0,0,0,0,0,0,0,0,0,0,0,0,0,0,0,0,0,0,0,0,0,0,0,0,0,0,0,0,0,0,0,0,0,0,0,0,0,0,0,0,0,0,0,0,0,0,0,0,0,0,0,0,0,0,0,0,0,0,0,0,0,0,0,0,0,0,0,0,0,0,0,0,0,0,0,0,0,0,0,0,0,0,0,0,0,0,0,0,0,0,0,0,0,0,0,0,0,0,0,0,0,0,0,0,0,0,0,0,0,0,0,0,0,0,0,0,0,0,0,0,0,0,0,0,0,0,0,0,0,0,0,0,0,0,0,0,0,0,0,0,0,0,0,0,0,0,0,0,0,0,0,0,373,373,374,374,375,375,376,376,377,377,378,378,379,379,380,380,381,381,382,383,383,384,384,384,385,385,386,386,387,387,388,388,389,389,390,390,391,391,392,392,393,393,394,394,395,395,396,396,397,397,398,398,399,400,400,401,401,402,402,403,403,404,404,405,405,406,406,407,407,408,408,409,409,410,410,411,411,412,412,413,413,414,414,415,416,416,417,417,418,418,419,420,420,421,421,422,422,423,423,424,425,425,426,427,427,428,429,429,430,431,431,432,433,433,434,434,435,435,436,436,437,437,438,439,439,440,441,442,442,443,444,444,445,445,446,447,447,448,449,449,450,451,451,452,453,454,454,455,456,456,457,457,458,459,459,460,461,462,462,463,464,465,465,466,467,467,468,469,469,470,471,471,472,473,474,475,476,476,477,478,479,479,480,481,481,482,483,484,485,485,486,487,487,488,489,490,491,492,492,493,494,495,496,497,497,498,499,500,500,501,502,503,504,505,506,507,507,508,509,510,511,512,513,514,515,515,516,517,518,519,520,520,521,522,523,524,525,526,527,528,528,529,530,531,533,534,535,536,537,538,539,540,541,542,543,544,545,546,546,547,548,549,550,551,552,554,555,556,557,558,559,560,561,562,564,565,566,568,569,570,571,572,572,573,574,575,576,577,579,580,581,582,584,585,586,587,587,588,0,0,0,0,0,0,0,0,0,0,0,0,0,0,0,0,0,0,0,0,0,0,0,0,0,0,0,0,0,0,0,0,0,0,0,0,0,0,0,0,0,0,0,0,0,0,0,0,0,0,0,0,0,0,0,0,0,0,0,0,0,0,0,0,0,0,0,0,0,0,0,0,0,0,0,0,0,0,0,0,0,0,0,0,0,0,0,0,0,0,0,0,0,0,0,0,0,0,0,0,0,0,0,0,0,0,0,0,0,0,0,0,0,0,0,0,0,0,0,0,0,0,0,0,0,0,0,0,0,0,0,0,0,0,0,0,0,0,0,0,0,0,0,0,0,0,0,0,0,0,0
0,0,0,0,0,0,0,0,0,0,0,0,0,0,0,0,0,0,0,0,0,0,0,0,0,0,0,0,0,0,0,0,0,0,0,0,0,0,0,0,0,0,0,0,0,0,0,0,0,0,0,0,0,0,0,0,0,0,0,0,0,0,0,0,0,0,0,0,0,0,0,0,0,0,0,0,0,0,0,0,0,0,0,0,0,0,0,0,0,0,0,0,0,0,0,0,0,0,0,0,0,0,0,0,0,0,0,0,0,0,0,0,0,0,0,0,0,0,0,0,0,0,0,0,0,0,0,0,0,0,0,0,0,0,0,0,0,0,0,0,0,0,0,0,0,0,0,0,0,0,0,0,0,0,0,0,0,0,0,0,0,0,0,0,0,0,0,0,0,0,0,0,0,0,0,0,0,0,0,0,0,0,0,0,0,0,0,0,0,0,0,0,0,0,0,375,375,376,376,377,377,378,378,379,379,380,380,381,382,382,383,383,384,384,385,385,386,386,386,387,388,388,388,389,389,390,390,391,391,392,393,393,394,394,394,395,395,396,396,397,398,398,399,399,400,400,401,401,402,402,403,403,404,404,405,405,406,406,407,407,408,408,409,410,410,411,411,412,412,413,413,414,414,415,415,416,416,417,417,418,419,419,420,420,421,421,422,422,423,424,424,425,426,426,427,427,428,429,429,430,431,431,432,433,433,434,434,435,435,436,436,437,437,438,439,439,440,441,442,442,443,444,444,445,446,446,447,447,448,449,449,450,451,451,452,453,454,454,455,456,456,457,457,458,459,459,460,461,462,462,463,464,465,465,466,467,467,468,469,469,470,471,471,472,473,474,475,476,476,477,478,479,479,480,481,481,482,483,484,485,485,486,487,487,488,489,490,491,491,492,493,494,495,496,497,497,498,499,500,500,501,502,503,504,505,506,507,507,508,509,510,511,512,513,514,515,515,516,517,518,519,520,521,521,522,523,524,525,526,527,528,528,529,530,531,533,534,535,536,537,538,539,540,541,542,543,544,545,546,546,547,548,549,550,551,552,554,555,556,557,558,559,560,561,562,564,565,566,568,569,570,571,572,572,573,574,575,576,577,579,580,581,583,584,585,586,587,588,588,0,0,0,0,0,0,0,0,0,0,0,0,0,0,0,0,0,0,0,0,0,0,0,0,0,0,0,0,0,0,0,0,0,0,0,0,0,0,0,0,0,0,0,0,0,0,0,0,0,0,0,0,0,0,0,0,0,0,0,0,0,0,0,0,0,0,0,0,0,0,0,0,0,0,0,0,0,0,0,0,0,0,0,0,0,0,0,0,0,0,0,0,0,0,0,0,0,0,0,0,0,0,0,0,0,0,0,0,0,0,0,0,0,0,0,0,0,0,0,0,0,0,0,0,0,0,0,0,0,0,0,0,0,0,0,0,0,0,0,0,0,0,0,0,0,0,0,0,0,0,0
0,0,0,0,0,0,0,0,0,0,0,0,0,0,0,0,0,0,0,0,0,0,0,0,0,0,0,0,0,0,0,0,0,0,0,0,0,0,0,0,0,0,0,0,0,0,0,0,0,0,0,0,0,0,0,0,0,0,0,0,0,0,0,0,0,0,0,0,0,0,0,0,0,0,0,0,0,0,0,0,0,0,0,0,0,0,0,0,0,0,0,0,0,0,0,0,0,0,0,0,0,0,0,0,0,0,0,0,0,0,0,0,0,0,0,0,0,0,0,0,0,0,0,0,0,0,0,0,0,0,0,0,0,0,0,0,0,0,0,0,0,0,0,0,0,0,0,0,0,0,0,0,0,0,0,0,0,0,0,0,0,0,0,0,0,0,0,0,0,0,0,0,0,0,0,0,0,0,0,0,0,0,0,0,0,0,0,0,0,0,0,0,0,0,0,0,0,0,0,0,0,0,0,0,0,0,0,381,382,382,383,383,384,384,385,385,386,386,387,387,388,388,389,389,390,390,391,391,392,392,393,393,394,394,395,395,396,396,397,397,398,399,399,400,400,401,401,402,402,403,403,404,404,405,405,406,406,407,407,408,408,409,409,410,410,411,411,412,412,413,413,414,414,415,415,416,417,417,418,418,419,419,420,420,421,422,422,423,423,424,424,425,426,426,427,428,428,429,430,430,431,431,432,433,433,434,434,435,435,436,436,437,437,438,439,439,440,441,442,443,443,444,445,445,446,446,447,448,448,449,449,450,451,451,452,453,454,454,455,456,456,457,458,458,459,460,460,461,462,462,463,464,465,465,466,467,467,468,469,469,470,471,471,472,473,474,475,476,476,477,478,479,479,480,481,481,482,483,484,485,485,486,487,487,488,489,489,490,491,492,493,494,495,496,497,497,498,499,500,500,501,502,503,504,505,506,507,507,508,509,510,511,512,513,514,515,515,516,517,518,519,520,521,522,522,523,524,525,526,527,528,528,529,531,531,533,534,535,536,537,538,539,540,541,542,543,544,545,546,546,547,548,549,550,551,553,554,555,556,557,558,559,560,561,562,564,565,566,567,569,570,571,572,573,573,574,575,576,577,579,580,581,583,584,585,586,587,588,588,0,0,0,0,0,0,0,0,0,0,0,0,0,0,0,0,0,0,0,0,0,0,0,0,0,0,0,0,0,0,0,0,0,0,0,0,0,0,0,0,0,0,0,0,0,0,0,0,0,0,0,0,0,0,0,0,0,0,0,0,0,0,0,0,0,0,0,0,0,0,0,0,0,0,0,0,0,0,0,0,0,0,0,0,0,0,0,0,0,0,0,0,0,0,0,0,0,0,0,0,0,0,0,0,0,0,0,0,0,0,0,0,0,0,0,0,0,0,0,0,0,0,0,0,0,0,0,0,0,0,0,0,0,0,0,0,0,0,0,0,0,0,0,0,0,0,0,0,0,0,0
0,0,0,0,0,0,0,0,0,0,0,0,0,0,0,0,0,0,0,0,0,0,0,0,0,0,0,0,0,0,0,0,0,0,0,0,0,0,0,0,0,0,0,0,0,0,0,0,0,0,0,0,0,0,0,0,0,0,0,0,0,0,0,0,0,0,0,0,0,0,0,0,0,0,0,0,0,0,0,0,0,0,0,0,0,0,0,0,0,0,0,0,0,0,0,0,0,0,0,0,0,0,0,0,0,0,0,0,0,0,0,0,0,0,0,0,0,0,0,0,0,0,0,0,0,0,0,0,0,0,0,0,0,0,0,0,0,0,0,0,0,0,0,0,0,0,0,0,0,0,0,0,0,0,0,0,0,0,0,0,0,0,0,0,0,0,0,0,0,0,0,0,0,0,0,0,0,0,0,0,0,0,0,0,0,0,0,0,0,0,0,0,0,0,0,0,0,0,0,0,0,0,0,0,0,0,0,0,0,0,0,0,0,0,0,385,386,387,387,388,388,389,389,389,390,390,391,392,392,393,393,394,394,395,395,396,396,397,397,398,398,399,399,400,401,401,401,402,402,403,403,404,404,405,406,406,407,407,408,408,409,409,410,410,411,411,412,412,413,413,413,414,415,415,416,416,417,417,418,419,419,420,420,421,421,422,422,423,423,424,425,425,426,427,427,428,428,429,430,430,431,431,432,433,433,434,435,435,436,436,437,437,438,438,439,439,440,441,442,443,443,444,445,445,446,446,447,448,448,449,449,450,451,451,452,453,454,454,455,456,456,457,458,458,459,460,460,461,462,462,463,464,465,465,466,467,467,468,469,469,470,471,471,472,473,474,475,476,476,477,478,479,479,480,481,481,482,483,484,484,485,486,486,487,488,489,489,490,491,492,493,494,495,496,497,497,498,499,500,500,501,502,503,504,505,506,506,507,508,509,510,511,512,512,513,515,515,516,517,518,519,520,521,521,522,523,524,525,526,527,528,529,530,531,532,533,534,535,536,537,538,539,540,541,541,543,543,545,546,546,547,549,549,551,552,553,554,555,556,557,558,559,560,561,563,564,565,566,567,568,569,570,572,572,573,574,575,576,577,579,580,582,583,584,585,586,587,588,588,0,0,0,0,0,0,0,0,0,0,0,0,0,0,0,0,0,0,0,0,0,0,0,0,0,0,0,0,0,0,0,0,0,0,0,0,0,0,0,0,0,0,0,0,0,0,0,0,0,0,0,0,0,0,0,0,0,0,0,0,0,0,0,0,0,0,0,0,0,0,0,0,0,0,0,0,0,0,0,0,0,0,0,0,0,0,0,0,0,0,0,0,0,0,0,0,0,0,0,0,0,0,0,0,0,0,0,0,0,0,0,0,0,0,0,0,0,0,0,0,0,0,0,0,0,0,0,0,0,0,0,0,0,0,0,0,0,0,0,0,0,0,0,0,0,0,0,0,0,0,0
0,0,0,0,0,0,0,0,0,0,0,0,0,0,0,0,0,0,0,0,0,0,0,0,0,0,0,0,0,0,0,0,0,0,0,0,0,0,0,0,0,0,0,0,0,0,0,0,0,0,0,0,0,0,0,0,0,0,0,0,0,0,0,0,0,0,0,0,0,0,0,0,0,0,0,0,0,0,0,0,0,0,0,0,0,0,0,0,0,0,0,0,0,0,0,0,0,0,0,0,0,0,0,0,0,0,0,0,0,0,0,0,0,0,0,0,0,0,0,0,0,0,0,0,0,0,0,0,0,0,0,0,0,0,0,0,0,0,0,0,0,0,0,0,0,0,0,0,0,0,0,0,0,0,0,0,0,0,0,0,0,0,0,0,0,0,0,0,0,0,0,0,0,0,0,0,0,0,0,0,0,0,0,0,0,0,0,0,0,0,0,0,0,0,0,0,0,0,0,0,0,0,0,0,0,0,0,0,0,0,0,0,0,0,0,0,0,387,387,388,388,389,389,390,390,391,391,392,393,393,394,394,395,395,395,396,396,397,398,398,399,399,400,400,401,401,402,402,403,403,404,404,405,405,406,406,407,407,408,408,409,409,410,410,411,411,412,412,413,413,414,414,415,416,416,417,417,418,418,419,419,420,420,421,421,422,423,423,424,424,425,426,426,427,427,428,429,429,430,431,431,432,432,433,434,434,435,435,436,436,437,437,438,438,439,440,440,441,442,443,444,444,445,445,446,447,447,448,448,449,450,450,451,451,452,453,454,454,455,456,457,457,458,458,459,460,460,461,462,462,463,464,465,465,466,467,467,468,469,469,470,471,471,472,473,474,475,476,476,477,478,479,479,480,481,481,482,483,484,484,485,486,486,487,488,489,490,491,492,492,493,494,495,496,497,497,498,499,500,500,501,502,503,504,505,505,506,507,508,509,510,510,511,512,513,514,515,516,517,518,519,520,521,522,522,523,524,525,526,527,528,529,530,531,532,533,534,535,536,537,538,539,540,540,541,543,543,545,546,547,548,549,550,551,552,553,554,555,556,557,558,559,560,562,563,564,565,566,567,568,569,570,571,572,573,574,575,576,577,579,580,582,583,584,585,586,587,588,588,0,0,0,0,0,0,0,0,0,0,0,0,0,0,0,0,0,0,0,0,0,0,0,0,0,0,0,0,0,0,0,0,0,0,0,0,0,0,0,0,0,0,0,0,0,0,0,0,0,0,0,0,0,0,0,0,0,0,0,0,0,0,0,0,0,0,0,0,0,0,0,0,0,0,0,0,0,0,0,0,0,0,0,0,0,0,0,0,0,0,0,0,0,0,0,0,0,0,0,0,0,0,0,0,0,0,0,0,0,0,0,0,0,0,0,0,0,0,0,0,0,0,0,0,0,0,0,0,0,0,0,0,0,0,0,0,0,0,0,0,0,0,0,0,0,0,0,0,0,0,0
0,0,0,0,0,0,0,0,0,0,0,0,0,0,0,0,0,0,0,0,0,0,0,0,0,0,0,0,0,0,0,0,0,0,0,0,0,0,0,0,0,0,0,0,0,0,0,0,0,0,0,0,0,0,0,0,0,0,0,0,0,0,0,0,0,0,0,0,0,0,0,0,0,0,0,0,0,0,0,0,0,0,0,0,0,0,0,0,0,0,0,0,0,0,0,0,0,0,0,0,0,0,0,0,0,0,0,0,0,0,0,0,0,0,0,0,0,0,0,0,0,0,0,0,0,0,0,0,0,0,0,0,0,0,0,0,0,0,0,0,0,0,0,0,0,0,0,0,0,0,0,0,0,0,0,0,0,0,0,0,0,0,0,0,0,0,0,0,0,0,0,0,0,0,0,0,0,0,0,0,0,0,0,0,0,0,0,0,0,0,0,0,0,0,0,0,0,0,0,0,0,0,0,0,0,0,0,0,0,0,0,0,0,0,0,0,0,0,0,0,0,0,0,0,0,391,391,392,393,394,394,394,395,395,396,396,397,397,398,399,399,400,400,401,401,401,402,402,403,403,404,405,405,406,406,407,407,408,408,409,409,410,410,411,411,412,412,413,413,414,414,415,415,416,417,417,418,418,419,419,420,420,421,421,422,422,423,423,424,425,425,426,426,427,428,428,429,430,430,431,431,432,432,433,434,434,435,435,436,437,437,438,438,439,439,440,441,441,442,443,444,445,445,446,446,447,447,448,449,449,450,450,451,451,452,453,454,455,455,456,457,457,458,458,459,460,460,461,462,462,463,464,465,465,466,467,467,468,469,469,470,471,471,472,473,474,475,476,476,477,478,479,479,480,481,481,482,483,484,484,485,486,486,487,488,489,490,491,492,492,493,494,495,496,497,497,498,499,500,500,501,502,503,504,504,505,506,507,508,509,509,510,511,512,513,514,515,516,517,518,519,520,521,522,523,523,524,525,526,527,528,529,530,531,532,533,534,535,536,537,538,539,540,540,541,542,543,544,546,547,548,549,550,551,552,553,554,555,556,557,558,559,560,561,563,564,565,566,567,568,569,570,571,572,573,574,575,576,577,579,580,581,583,584,585,586,587,588,588,0,0,0,0,0,0,0,0,0,0,0,0,0,0,0,0,0,0,0,0,0,0,0,0,0,0,0,0,0,0,0,0,0,0,0,0,0,0,0,0,0,0,0,0,0,0,0,0,0,0,0,0,0,0,0,0,0,0,0,0,0,0,0,0,0,0,0,0,0,0,0,0,0,0,0,0,0,0,0,0,0,0,0,0,0,0,0,0,0,0,0,0,0,0,0,0,0,0,0,0,0,0,0,0,0,0,0,0,0,0,0,0,0,0,0,0,0,0,0,0,0,0,0,0,0,0,0,0,0,0,0,0,0,0,0,0,0,0,0,0,0,0,0,0,0,0,0,0,0,0,0
0,0,0,0,0,0,0,0,0,0,0,0,0,0,0,0,0,0,0,0,0,0,0,0,0,0,0,0,0,0,0,0,0,0,0,0,0,0,0,0,0,0,0,0,0,0,0,0,0,0,0,0,0,0,0,0,0,0,0,0,0,0,0,0,0,0,0,0,0,0,0,0,0,0,0,0,0,0,0,0,0,0,0,0,0,0,0,0,0,0,0,0,0,0,0,0,0,0,0,0,0,0,0,0,0,0,0,0,0,0,0,0,0,0,0,0,0,0,0,0,0,0,0,0,0,0,0,0,0,0,0,0,0,0,0,0,0,0,0,0,0,0,0,0,0,0,0,0,0,0,0,0,0,0,0,0,0,0,0,0,0,0,0,0,0,0,0,0,0,0,0,0,0,0,0,0,0,0,0,0,0,0,0,0,0,0,0,0,0,0,0,0,0,0,0,0,0,0,0,0,0,0,0,0,0,0,0,0,0,0,0,0,0,0,0,0,0,0,0,0,0,0,0,0,0,0,0,0,0,394,394,395,395,395,396,396,397,397,398,399,399,400,400,401,401,402,402,403,403,404,404,405,406,406,407,407,408,408,409,409,410,410,411,411,411,412,412,413,413,414,414,415,416,416,417,417,418,419,419,420,420,421,421,422,422,423,423,424,424,425,425,426,427,427,428,429,429,430,430,431,432,432,433,433,434,435,435,436,436,437,437,438,438,439,440,440,441,442,442,443,444,445,445,446,447,447,448,448,449,449,450,450,451,452,452,453,454,455,455,456,457,457,458,459,459,460,460,461,462,463,463,464,465,465,466,467,467,468,469,469,470,471,471,472,473,474,475,476,476,477,478,479,479,480,481,482,482,483,484,484,485,486,486,487,488,489,490,491,492,492,493,494,495,496,497,497,498,499,499,500,501,502,503,504,504,505,506,507,508,509,509,510,511,512,513,514,515,516,517,518,519,520,521,522,523,523,524,525,526,527,528,529,530,531,532,533,534,535,536,537,538,539,540,540,541,542,543,544,546,547,548,549,550,551,552,553,554,555,556,557,558,559,560,561,563,564,565,566,567,568,569,570,571,572,573,574,575,576,577,579,580,581,583,584,585,586,587,588,589,0,0,0,0,0,0,0,0,0,0,0,0,0,0,0,0,0,0,0,0,0,0,0,0,0,0,0,0,0,0,0,0,0,0,0,0,0,0,0,0,0,0,0,0,0,0,0,0,0,0,0,0,0,0,0,0,0,0,0,0,0,0,0,0,0,0,0,0,0,0,0,0,0,0,0,0,0,0,0,0,0,0,0,0,0,0,0,0,0,0,0,0,0,0,0,0,0,0,0,0,0,0,0,0,0,0,0,0,0,0,0,0,0,0,0,0,0,0,0,0,0,0,0,0,0,0,0,0,0,0,0,0,0,0,0,0,0,0,0,0,0,0,0,0,0,0,0,0,0,0,0
0,0,0,0,0,0,0,0,0,0,0,0,0,0,0,0,0,0,0,0,0,0,0,0,0,0,0,0,0,0,0,0,0,0,0,0,0,0,0,0,0,0,0,0,0,0,0,0,0,0,0,0,0,0,0,0,0,0,0,0,0,0,0,0,0,0,0,0,0,0,0,0,0,0,0,0,0,0,0,0,0,0,0,0,0,0,0,0,0,0,0,0,0,0,0,0,0,0,0,0,0,0,0,0,0,0,0,0,0,0,0,0,0,0,0,0,0,0,0,0,0,0,0,0,0,0,0,0,0,0,0,0,0,0,0,0,0,0,0,0,0,0,0,0,0,0,0,0,0,0,0,0,0,0,0,0,0,0,0,0,0,0,0,0,0,0,0,0,0,0,0,0,0,0,0,0,0,0,0,0,0,0,0,0,0,0,0,0,0,0,0,0,0,0,0,0,0,0,0,0,0,0,0,0,0,0,0,0,0,0,0,0,0,0,0,0,0,0,0,0,0,0,0,0,0,0,0,0,0,0,0,0,0,0,0,0,0,398,398,399,400,400,401,401,401,402,402,403,404,404,405,405,406,406,407,407,408,408,409,409,410,410,411,411,412,412,413,413,414,414,415,415,416,417,417,418,418,419,419,420,420,421,421,422,422,423,423,424,424,425,426,426,427,428,428,429,430,430,431,431,432,432,433,434,434,435,435,436,437,437,438,438,439,439,440,441,441,442,443,444,444,445,446,446,447,448,448,449,449,450,450,451,451,452,453,453,454,455,455,456,457,457,458,459,459,460,461,461,462,463,463,464,465,466,466,467,467,468,469,469,470,471,471,472,473,474,475,476,476,477,478,479,480,480,481,482,482,483,484,484,485,486,486,487,488,489,490,491,492,492,493,494,495,496,497,497,498,499,499,500,501,502,503,504,505,505,506,507,508,508,509,510,511,512,513,514,515,516,517,518,519,520,521,522,523,523,524,525,526,527,528,529,530,531,532,533,534,535,536,537,538,539,540,540,541,542,543,544,545,546,547,549,550,551,552,553,554,555,555,556,558,559,560,561,563,564,565,566,567,568,569,570,571,572,573,574,575,576,577,579,580,581,583,584,585,586,587,588,0,0,0,0,0,0,0,0,0,0,0,0,0,0,0,0,0,0,0,0,0,0,0,0,0,0,0,0,0,0,0,0,0,0,0,0,0,0,0,0,0,0,0,0,0,0,0,0,0,0,0,0,0,0,0,0,0,0,0,0,0,0,0,0,0,0,0,0,0,0,0,0,0,0,0,0,0,0,0,0,0,0,0,0,0,0,0,0,0,0,0,0,0,0,0,0,0,0,0,0,0,0,0,0,0,0,0,0,0,0,0,0,0,0,0,0,0,0,0,0,0,0,0,0,0,0,0,0,0,0,0,0,0,0,0,0,0,0,0,0,0,0,0,0,0,0,0,0,0,0,0,0
0,0,0,0,0,0,0,0,0,0,0,0,0,0,0,0,0,0,0,0,0,0,0,0,0,0,0,0,0,0,0,0,0,0,0,0,0,0,0,0,0,0,0,0,0,0,0,0,0,0,0,0,0,0,0,0,0,0,0,0,0,0,0,0,0,0,0,0,0,0,0,0,0,0,0,0,0,0,0,0,0,0,0,0,0,0,0,0,0,0,0,0,0,0,0,0,0,0,0,0,0,0,0,0,0,0,0,0,0,0,0,0,0,0,0,0,0,0,0,0,0,0,0,0,0,0,0,0,0,0,0,0,0,0,0,0,0,0,0,0,0,0,0,0,0,0,0,0,0,0,0,0,0,0,0,0,0,0,0,0,0,0,0,0,0,0,0,0,0,0,0,0,0,0,0,0,0,0,0,0,0,0,0,0,0,0,0,0,0,0,0,0,0,0,0,0,0,0,0,0,0,0,0,0,0,0,0,0,0,0,0,0,0,0,0,0,0,0,0,0,0,0,0,0,0,0,0,0,0,0,0,0,0,0,0,0,0,0,0,0,0,0,0,401,402,402,403,403,404,404,405,406,406,407,407,408,408,409,409,410,410,411,411,411,412,412,413,413,414,415,415,416,417,417,418,418,419,419,420,420,421,421,422,422,423,423,424,424,425,425,426,427,427,428,429,429,430,430,431,432,432,433,433,434,434,435,436,436,437,438,438,439,439,440,440,441,442,442,443,444,445,445,446,447,447,448,448,449,449,450,450,451,452,452,453,453,454,455,456,456,457,458,458,459,459,460,461,461,462,463,464,464,465,466,466,467,468,468,469,469,470,471,472,472,473,474,475,476,476,477,478,479,480,480,481,482,482,483,484,484,485,486,487,487,488,489,490,491,492,492,493,494,495,496,496,497,498,499,499,500,501,502,503,504,505,505,506,507,508,508,509,510,511,512,513,514,515,516,517,518,519,520,521,522,523,523,524,525,526,527,528,529,530,531,532,533,534,535,536,537,538,539,540,540,541,542,543,544,545,546,547,549,550,551,552,553,553,554,555,556,558,559,560,561,563,564,565,566,567,568,569,570,571,572,573,574,575,576,577,579,580,581,583,584,584,585,586,0,0,0,0,0,0,0,0,0,0,0,0,0,0,0,0,0,0,0,0,0,0,0,0,0,0,0,0,0,0,0,0,0,0,0,0,0,0,0,0,0,0,0,0,0,0,0,0,0,0,0,0,0,0,0,0,0,0,0,0,0,0,0,0,0,0,0,0,0,0,0,0,0,0,0,0,0,0,0,0,0,0,0,0,0,0,0,0,0,0,0,0,0,0,0,0,0,0,0,0,0,0,0,0,0,0,0,0,0,0,0,0,0,0,0,0,0,0,0,0,0,0,0,0,0,0,0,0,0,0,0,0,0,0,0,0,0,0,0,0,0,0,0,0,0,0,0,0,0,0,0,0,0
0,0,0,0,0,0,0,0,0,0,0,0,0,0,0,0,0,0,0,0,0,0,0,0,0,0,0,0,0,0,0,0,0,0,0,0,0,0,0,0,0,0,0,0,0,0,0,0,0,0,0,0,0,0,0,0,0,0,0,0,0,0,0,0,0,0,0,0,0,0,0,0,0,0,0,0,0,0,0,0,0,0,0,0,0,0,0,0,0,0,0,0,0,0,0,0,0,0,0,0,0,0,0,0,0,0,0,0,0,0,0,0,0,0,0,0,0,0,0,0,0,0,0,0,0,0,0,0,0,0,0,0,0,0,0,0,0,0,0,0,0,0,0,0,0,0,0,0,0,0,0,0,0,0,0,0,0,0,0,0,0,0,0,0,0,0,0,0,0,0,0,0,0,0,0,0,0,0,0,0,0,0,0,0,0,0,0,0,0,0,0,0,0,0,0,0,0,0,0,0,0,0,0,0,0,0,0,0,0,0,0,0,0,0,0,0,0,0,0,0,0,0,0,0,0,0,0,0,0,0,0,0,0,0,0,0,0,0,0,0,0,0,0,0,0,0,0,0,0,0,0,406,407,407,408,408,409,409,410,410,410,411,411,412,412,413,413,414,414,415,416,416,417,418,418,419,419,420,420,421,421,421,422,422,423,423,424,424,425,426,426,427,428,428,429,430,430,431,431,432,432,433,434,434,435,436,436,437,437,438,439,439,440,440,441,441,442,443,444,444,445,446,447,447,448,448,449,449,450,450,451,451,452,452,453,454,454,455,456,457,457,458,458,459,460,460,461,462,462,463,464,464,465,466,466,467,468,468,469,470,470,471,472,473,473,474,475,476,477,477,478,479,480,480,481,482,482,483,484,485,485,486,487,487,488,489,490,491,492,492,493,494,495,496,496,497,498,499,499,500,501,502,503,504,505,505,506,507,508,509,509,510,511,512,513,514,515,516,517,518,519,520,521,522,523,523,524,525,526,527,528,529,530,531,532,533,534,535,536,537,538,539,540,540,541,542,543,544,545,546,547,549,550,551,552,553,553,554,555,556,558,559,560,561,563,564,565,566,567,568,569,570,571,572,573,574,575,576,577,579,580,581,582,583,584,585,585,0,0,0,0,0,0,0,0,0,0,0,0,0,0,0,0,0,0,0,0,0,0,0,0,0,0,0,0,0,0,0,0,0,0,0,0,0,0,0,0,0,0,0,0,0,0,0,0,0,0,0,0,0,0,0,0,0,0,0,0,0,0,0,0,0,0,0,0,0,0,0,0,0,0,0,0,0,0,0,0,0,0,0,0,0,0,0,0,0,0,0,0,0,0,0,0,0,0,0,0,0,0,0,0,0,0,0,0,0,0,0,0,0,0,0,0,0,0,0,0,0,0,0,0,0,0,0,0,0,0,0,0,0,0,0,0,0,0,0,0,0,0,0,0,0,0,0,0,0,0,0,0,0
0,0,0,0,0,0,0,0,0,0,0,0,0,0,0,0,0,0,0,0,0,0,0,0,0,0,0,0,0,0,0,0,0,0,0,0,0,0,0,0,0,0,0,0,0,0,0,0,0,0,0,0,0,0,0,0,0,0,0,0,0,0,0,0,0,0,0,0,0,0,0,0,0,0,0,0,0,0,0,0,0,0,0,0,0,0,0,0,0,0,0,0,0,0,0,0,0,0,0,0,0,0,0,0,0,0,0,0,0,0,0,0,0,0,0,0,0,0,0,0,0,0,0,0,0,0,0,0,0,0,0,0,0,0,0,0,0,0,0,0,0,0,0,0,0,0,0,0,0,0,0,0,0,0,0,0,0,0,0,0,0,0,0,0,0,0,0,0,0,0,0,0,0,0,0,0,0,0,0,0,0,0,0,0,0,0,0,0,0,0,0,0,0,0,0,0,0,0,0,0,0,0,0,0,0,0,0,0,0,0,0,0,0,0,0,0,0,0,0,0,0,0,0,0,0,0,0,0,0,0,0,0,0,0,0,0,0,0,0,0,0,0,0,0,0,0,0,0,0,0,0,0,0,0,0,0,0,409,410,410,411,411,411,412,412,413,413,414,415,415,416,417,417,418,419,419,419,420,420,421,421,422,422,423,423,424,424,425,425,426,427,427,428,429,429,430,430,431,432,432,433,433,434,435,435,436,437,437,438,438,439,440,440,441,441,442,442,443,444,445,445,446,447,447,448,448,449,449,450,451,451,452,452,453,453,454,455,455,456,457,457,458,459,459,460,460,461,462,463,463,464,465,465,466,467,467,468,469,469,470,471,471,472,473,474,474,475,476,477,477,478,479,480,481,481,482,483,483,484,485,485,486,487,488,488,489,490,491,492,493,493,494,495,496,496,497,498,499,499,500,501,502,503,504,505,506,506,507,508,509,510,510,511,512,513,514,515,516,517,518,519,520,521,522,523,523,524,525,526,527,528,529,530,531,532,533,534,535,536,537,538,539,540,541,541,542,543,544,546,547,548,549,550,551,552,553,553,554,555,556,558,559,560,561,563,564,565,566,567,568,569,570,571,572,573,574,575,576,577,579,580,581,582,583,584,585,585,0,0,0,0,0,0,0,0,0,0,0,0,0,0,0,0,0,0,0,0,0,0,0,0,0,0,0,0,0,0,0,0,0,0,0,0,0,0,0,0,0,0,0,0,0,0,0,0,0,0,0,0,0,0,0,0,0,0,0,0,0,0,0,0,0,0,0,0,0,0,0,0,0,0,0,0,0,0,0,0,0,0,0,0,0,0,0,0,0,0,0,0,0,0,0,0,0,0,0,0,0,0,0,0,0,0,0,0,0,0,0,0,0,0,0,0,0,0,0,0,0,0,0,0,0,0,0,0,0,0,0,0,0,0,0,0,0,0,0,0,0,0,0,0,0,0,0,0,0,0,0,0,0
0,0,0,0,0,0,0,0,0,0,0,0,0,0,0,0,0,0,0,0,0,0,0,0,0,0,0,0,0,0,0,0,0,0,0,0,0,0,0,0,0,0,0,0,0,0,0,0,0,0,0,0,0,0,0,0,0,0,0,0,0,0,0,0,0,0,0,0,0,0,0,0,0,0,0,0,0,0,0,0,0,0,0,0,0,0,0,0,0,0,0,0,0,0,0,0,0,0,0,0,0,0,0,0,0,0,0,0,0,0,0,0,0,0,0,0,0,0,0,0,0,0,0,0,0,0,0,0,0,0,0,0,0,0,0,0,0,0,0,0,0,0,0,0,0,0,0,0,0,0,0,0,0,0,0,0,0,0,0,0,0,0,0,0,0,0,0,0,0,0,0,0,0,0,0,0,0,0,0,0,0,0,0,0,0,0,0,0,0,0,0,0,0,0,0,0,0,0,0,0,0,0,0,0,0,0,0,0,0,0,0,0,0,0,0,0,0,0,0,0,0,0,0,0,0,0,0,0,0,0,0,0,0,0,0,0,0,0,0,0,0,0,0,0,0,0,0,0,0,0,0,0,0,0,0,0,0,0,0,0,0,0,0,412,413,413,414,414,415,416,416,417,418,418,419,419,420,420,421,421,422,422,422,423,424,424,425,425,426,426,427,428,428,429,430,430,431,431,432,432,433,434,434,435,436,436,437,438,438,439,439,440,440,441,442,442,443,444,444,445,446,447,447,448,448,449,449,450,450,451,451,452,452,453,454,454,455,456,456,457,458,458,459,460,460,461,461,462,463,464,464,465,466,466,467,467,468,469,469,470,471,472,472,473,474,474,475,476,477,478,478,479,480,481,481,482,483,483,484,485,486,486,487,488,488,489,490,491,492,493,494,494,495,496,497,497,498,499,500,500,501,502,503,504,505,506,506,507,508,509,510,511,511,512,513,514,515,516,517,518,519,520,521,522,523,524,524,525,526,527,528,529,530,531,532,533,534,535,536,537,538,539,540,541,541,542,543,544,546,547,548,549,550,551,552,553,553,554,555,556,558,559,560,562,563,564,565,566,567,568,569,570,571,572,573,574,575,576,577,579,580,581,582,583,584,585,586,0,0,0,0,0,0,0,0,0,0,0,0,0,0,0,0,0,0,0,0,0,0,0,0,0,0,0,0,0,0,0,0,0,0,0,0,0,0,0,0,0,0,0,0,0,0,0,0,0,0,0,0,0,0,0,0,0,0,0,0,0,0,0,0,0,0,0,0,0,0,0,0,0,0,0,0,0,0,0,0,0,0,0,0,0,0,0,0,0,0,0,0,0,0,0,0,0,0,0,0,0,0,0,0,0,0,0,0,0,0,0,0,0,0,0,0,0,0,0,0,0,0,0,0,0,0,0,0,0,0,0,0,0,0,0,0,0,0,0,0,0,0,0,0,0,0,0,0,0,0,0,0,0
0,0,0,0,0,0,0,0,0,0,0,0,0,0,0,0,0,0,0,0,0,0,0,0,0,0,0,0,0,0,0,0,0,0,0,0,0,0,0,0,0,0,0,0,0,0,0,0,0,0,0,0,0,0,0,0,0,0,0,0,0,0,0,0,0,0,0,0,0,0,0,0,0,0,0,0,0,0,0,0,0,0,0,0,0,0,0,0,0,0,0,0,0,0,0,0,0,0,0,0,0,0,0,0,0,0,0,0,0,0,0,0,0,0,0,0,0,0,0,0,0,0,0,0,0,0,0,0,0,0,0,0,0,0,0,0,0,0,0,0,0,0,0,0,0,0,0,0,0,0,0,0,0,0,0,0,0,0,0,0,0,0,0,0,0,0,0,0,0,0,0,0,0,0,0,0,0,0,0,0,0,0,0,0,0,0,0,0,0,0,0,0,0,0,0,0,0,0,0,0,0,0,0,0,0,0,0,0,0,0,0,0,0,0,0,0,0,0,0,0,0,0,0,0,0,0,0,0,0,0,0,0,0,0,0,0,0,0,0,0,0,0,0,0,0,0,0,0,0,0,0,0,0,0,0,0,0,0,0,0,0,0,0,0,0,0,0,0,0,416,417,417,418,419,419,420,420,420,421,421,422,422,423,423,424,424,425,425,426,427,427,428,429,429,430,431,431,432,432,433,433,434,435,435,436,437,438,438,439,439,440,440,441,441,442,443,443,444,445,445,446,447,447,448,449,449,450,450,451,451,452,452,453,453,454,455,455,456,457,457,458,459,459,460,460,461,462,462,463,464,465,465,466,466,467,468,468,469,470,470,471,472,473,473,474,475,475,476,477,478,478,479,480,481,481,482,483,483,484,485,486,486,487,488,489,489,490,491,492,493,494,495,495,496,497,497,498,499,500,501,502,502,503,504,505,506,507,507,508,509,510,511,512,512,513,514,515,516,517,518,519,520,521,522,523,524,524,525,526,527,528,529,530,531,532,533,534,535,536,537,538,539,540,541,542,543,544,545,546,547,548,549,550,550,551,552,553,554,555,556,558,559,560,561,563,564,565,566,567,568,569,570,571,572,573,574,575,576,577,579,580,581,582,583,584,585,586,0,0,0,0,0,0,0,0,0,0,0,0,0,0,0,0,0,0,0,0,0,0,0,0,0,0,0,0,0,0,0,0,0,0,0,0,0,0,0,0,0,0,0,0,0,0,0,0,0,0,0,0,0,0,0,0,0,0,0,0,0,0,0,0,0,0,0,0,0,0,0,0,0,0,0,0,0,0,0,0,0,0,0,0,0,0,0,0,0,0,0,0,0,0,0,0,0,0,0,0,0,0,0,0,0,0,0,0,0,0,0,0,0,0,0,0,0,0,0,0,0,0,0,0,0,0,0,0,0,0,0,0,0,0,0,0,0,0,0,0,0,0,0,0,0,0,0,0,0,0,0,0,0
0,0,0,0,0,0,0,0,0,0,0,0,0,0,0,0,0,0,0,0,0,0,0,0,0,0,0,0,0,0,0,0,0,0,0,0,0,0,0,0,0,0,0,0,0,0,0,0,0,0,0,0,0,0,0,0,0,0,0,0,0,0,0,0,0,0,0,0,0,0,0,0,0,0,0,0,0,0,0,0,0,0,0,0,0,0,0,0,0,0,0,0,0,0,0,0,0,0,0,0,0,0,0,0,0,0,0,0,0,0,0,0,0,0,0,0,0,0,0,0,0,0,0,0,0,0,0,0,0,0,0,0,0,0,0,0,0,0,0,0,0,0,0,0,0,0,0,0,0,0,0,0,0,0,0,0,0,0,0,0,0,0,0,0,0,0,0,0,0,0,0,0,0,0,0,0,0,0,0,0,0,0,0,0,0,0,0,0,0,0,0,0,0,0,0,0,0,0,0,0,0,0,0,0,0,0,0,0,0,0,0,0,0,0,0,0,0,0,0,0,0,0,0,0,0,0,0,0,0,0,0,0,0,0,0,0,0,0,0,0,0,0,0,0,0,0,0,0,0,0,0,0,0,0,0,0,0,0,0,0,0,0,0,0,0,0,0,0,0,0,0,0,0,0,0,420,420,420,421,421,422,422,423,424,424,425,425,426,426,427,428,428,429,430,430,431,431,432,432,433,434,434,435,436,437,437,438,439,439,440,440,441,441,442,442,443,444,444,445,446,447,447,448,448,449,450,450,450,451,451,452,453,453,454,454,455,456,456,457,458,458,459,459,460,461,461,462,463,464,464,465,465,466,467,467,468,468,469,470,471,471,472,473,473,474,475,476,476,477,478,479,479,480,481,482,482,483,484,484,485,486,487,487,488,489,490,490,491,492,493,494,495,495,496,497,498,499,499,500,501,502,502,503,504,505,506,507,507,508,509,510,511,512,513,513,514,515,516,517,518,519,520,521,522,523,524,524,525,526,527,528,529,530,531,532,533,534,535,536,537,538,539,540,541,541,543,544,544,545,546,547,548,549,550,551,552,553,554,555,556,557,559,560,561,563,564,565,566,567,568,570,570,571,572,573,574,575,576,577,578,580,581,581,583,584,586,0,0,0,0,0,0,0,0,0,0,0,0,0,0,0,0,0,0,0,0,0,0,0,0,0,0,0,0,0,0,0,0,0,0,0,0,0,0,0,0,0,0,0,0,0,0,0,0,0,0,0,0,0,0,0,0,0,0,0,0,0,0,0,0,0,0,0,0,0,0,0,0,0,0,0,0,0,0,0,0,0,0,0,0,0,0,0,0,0,0,0,0,0,0,0,0,0,0,0,0,0,0,0,0,0,0,0,0,0,0,0,0,0,0,0,0,0,0,0,0,0,0,0,0,0,0,0,0,0,0,0,0,0,0,0,0,0,0,0,0,0,0,0,0,0,0,0,0,0,0,0,0,0,0
0,0,0,0,0,0,0,0,0,0,0,0,0,0,0,0,0,0,0,0,0,0,0,0,0,0,0,0,0,0,0,0,0,0,0,0,0,0,0,0,0,0,0,0,0,0,0,0,0,0,0,0,0,0,0,0,0,0,0,0,0,0,0,0,0,0,0,0,0,0,0,0,0,0,0,0,0,0,0,0,0,0,0,0,0,0,0,0,0,0,0,0,0,0,0,0,0,0,0,0,0,0,0,0,0,0,0,0,0,0,0,0,0,0,0,0,0,0,0,0,0,0,0,0,0,0,0,0,0,0,0,0,0,0,0,0,0,0,0,0,0,0,0,0,0,0,0,0,0,0,0,0,0,0,0,0,0,0,0,0,0,0,0,0,0,0,0,0,0,0,0,0,0,0,0,0,0,0,0,0,0,0,0,0,0,0,0,0,0,0,0,0,0,0,0,0,0,0,0,0,0,0,0,0,0,0,0,0,0,0,0,0,0,0,0,0,0,0,0,0,0,0,0,0,0,0,0,0,0,0,0,0,0,0,0,0,0,0,0,0,0,0,0,0,0,0,0,0,0,0,0,0,0,0,0,0,0,0,0,0,0,0,0,0,0,0,0,0,0,0,0,0,0,0,0,0,0,0,0,0,0,0,0,0,0,425,426,426,427,428,428,429,430,430,431,431,432,432,433,433,434,435,436,436,437,438,439,439,440,440,441,441,442,442,443,444,444,445,446,446,447,448,448,449,449,450,450,451,451,452,452,453,453,454,455,455,456,457,457,458,459,459,460,460,461,462,462,463,464,465,465,466,466,467,468,468,469,469,470,471,472,472,473,474,474,475,476,477,477,478,479,480,480,481,482,483,483,484,485,486,486,487,488,488,489,490,491,492,493,493,494,495,496,496,497,498,499,500,500,501,502,503,503,504,505,506,507,508,509,510,510,511,512,513,514,515,515,516,518,519,520,521,522,522,523,524,525,525,526,527,528,529,530,531,532,533,534,535,536,537,538,539,540,541,541,542,543,544,545,546,547,548,549,550,551,552,553,554,555,556,557,559,560,561,563,564,565,566,567,569,570,571,571,572,573,574,575,576,577,578,579,580,581,582,584,0,0,0,0,0,0,0,0,0,0,0,0,0,0,0,0,0,0,0,0,0,0,0,0,0,0,0,0,0,0,0,0,0,0,0,0,0,0,0,0,0,0,0,0,0,0,0,0,0,0,0,0,0,0,0,0,0,0,0,0,0,0,0,0,0,0,0,0,0,0,0,0,0,0,0,0,0,0,0,0,0,0,0,0,0,0,0,0,0,0,0,0,0,0,0,0,0,0,0,0,0,0,0,0,0,0,0,0,0,0,0,0,0,0,0,0,0,0,0,0,0,0,0,0,0,0,0,0,0,0,0,0,0,0,0,0,0,0,0,0,0,0,0,0,0,0,0,0,0,0,0,0,0,0,0
0,0,0,0,0,0,0,0,0,0,0,0,0,0,0,0,0,0,0,0,0,0,0,0,0,0,0,0,0,0,0,0,0,0,0,0,0,0,0,0,0,0,0,0,0,0,0,0,0,0,0,0,0,0,0,0,0,0,0,0,0,0,0,0,0,0,0,0,0,0,0,0,0,0,0,0,0,0,0,0,0,0,0,0,0,0,0,0,0,0,0,0,0,0,0,0,0,0,0,0,0,0,0,0,0,0,0,0,0,0,0,0,0,0,0,0,0,0,0,0,0,0,0,0,0,0,0,0,0,0,0,0,0,0,0,0,0,0,0,0,0,0,0,0,0,0,0,0,0,0,0,0,0,0,0,0,0,0,0,0,0,0,0,0,0,0,0,0,0,0,0,0,0,0,0,0,0,0,0,0,0,0,0,0,0,0,0,0,0,0,0,0,0,0,0,0,0,0,0,0,0,0,0,0,0,0,0,0,0,0,0,0,0,0,0,0,0,0,0,0,0,0,0,0,0,0,0,0,0,0,0,0,0,0,0,0,0,0,0,0,0,0,0,0,0,0,0,0,0,0,0,0,0,0,0,0,0,0,0,0,0,0,0,0,0,0,0,0,0,0,0,0,0,0,0,0,0,0,0,0,0,0,0,0,0,0,0,0,0,0,0,0,0,431,431,432,432,433,433,434,434,435,436,437,438,438,439,440,440,441,441,442,442,443,443,444,445,446,446,447,447,448,449,449,450,450,451,451,452,452,453,453,454,455,455,456,456,457,458,458,459,459,460,461,461,462,463,463,464,465,465,466,467,467,468,468,469,470,470,471,472,473,473,474,475,476,476,477,478,479,479,480,481,481,482,483,484,484,485,486,487,487,488,489,490,490,491,492,493,494,494,495,496,497,498,498,499,500,500,501,502,503,504,504,505,506,507,508,509,510,511,511,512,513,514,515,516,517,518,519,520,521,522,523,523,524,525,525,526,527,528,529,530,531,532,533,534,535,536,537,538,539,540,541,541,542,543,544,545,546,547,548,549,550,551,552,553,554,555,556,557,559,560,561,563,564,565,566,568,569,570,571,571,572,573,574,574,575,577,578,579,580,581,582,583,0,0,0,0,0,0,0,0,0,0,0,0,0,0,0,0,0,0,0,0,0,0,0,0,0,0,0,0,0,0,0,0,0,0,0,0,0,0,0,0,0,0,0,0,0,0,0,0,0,0,0,0,0,0,0,0,0,0,0,0,0,0,0,0,0,0,0,0,0,0,0,0,0,0,0,0,0,0,0,0,0,0,0,0,0,0,0,0,0,0,0,0,0,0,0,0,0,0,0,0,0,0,0,0,0,0,0,0,0,0,0,0,0,0,0,0,0,0,0,0,0,0,0,0,0,0,0,0,0,0,0,0,0,0,0,0,0,0,0,0,0,0,0,0,0,0,0,0,0,0,0,0,0,0,0
0,0,0,0,0,0,0,0,0,0,0,0,0,0,0,0,0,0,0,0,0,0,0,0,0,0,0,0,0,0,0,0,0,0,0,0,0,0,0,0,0,0,0,0,0,0,0,0,0,0,0,0,0,0,0,0,0,0,0,0,0,0,0,0,0,0,0,0,0,0,0,0,0,0,0,0,0,0,0,0,0,0,0,0,0,0,0,0,0,0,0,0,0,0,0,0,0,0,0,0,0,0,0,0,0,0,0,0,0,0,0,0,0,0,0,0,0,0,0,0,0,0,0,0,0,0,0,0,0,0,0,0,0,0,0,0,0,0,0,0,0,0,0,0,0,0,0,0,0,0,0,0,0,0,0,0,0,0,0,0,0,0,0,0,0,0,0,0,0,0,0,0,0,0,0,0,0,0,0,0,0,0,0,0,0,0,0,0,0,0,0,0,0,0,0,0,0,0,0,0,0,0,0,0,0,0,0,0,0,0,0,0,0,0,0,0,0,0,0,0,0,0,0,0,0,0,0,0,0,0,0,0,0,0,0,0,0,0,0,0,0,0,0,0,0,0,0,0,0,0,0,0,0,0,0,0,0,0,0,0,0,0,0,0,0,0,0,0,0,0,0,0,0,0,0,0,0,0,0,0,0,0,0,0,0,0,0,0,0,0,0,0,0,0,0,0,0,0,0,0,0,0,0,438,438,439,440,440,441,441,442,442,443,443,444,445,445,446,447,447,448,449,449,450,450,451,451,452,452,453,453,454,454,455,456,456,457,457,458,459,459,460,460,461,462,462,463,464,465,465,466,466,467,467,468,469,469,470,471,471,472,473,474,474,475,476,477,477,478,479,480,480,481,482,483,483,484,485,485,486,487,488,488,489,490,491,492,492,493,494,495,496,496,497,498,498,499,500,501,501,502,503,504,505,505,506,507,508,509,510,511,512,512,513,514,515,516,517,518,519,520,521,522,523,523,524,525,526,526,527,528,529,530,531,532,533,534,535,536,537,538,539,540,541,541,542,543,544,545,546,547,548,549,550,551,552,553,554,555,556,557,559,560,561,563,564,565,567,568,569,570,571,571,572,573,574,574,575,576,578,579,580,581,582,582,0,0,0,0,0,0,0,0,0,0,0,0,0,0,0,0,0,0,0,0,0,0,0,0,0,0,0,0,0,0,0,0,0,0,0,0,0,0,0,0,0,0,0,0,0,0,0,0,0,0,0,0,0,0,0,0,0,0,0,0,0,0,0,0,0,0,0,0,0,0,0,0,0,0,0,0,0,0,0,0,0,0,0,0,0,0,0,0,0,0,0,0,0,0,0,0,0,0,0,0,0,0,0,0,0,0,0,0,0,0,0,0,0,0,0,0,0,0,0,0,0,0,0,0,0,0,0,0,0,0,0,0,0,0,0,0,0,0,0,0,0,0,0,0,0,0,0,0,0,0,0,0,0,0,0
0,0,0,0,0,0,0,0,0,0,0,0,0,0,0,0,0,0,0,0,0,0,0,0,0,0,0,0,0,0,0,0,0,0,0,0,0,0,0,0,0,0,0,0,0,0,0,0,0,0,0,0,0,0,0,0,0,0,0,0,0,0,0,0,0,0,0,0,0,0,0,0,0,0,0,0,0,0,0,0,0,0,0,0,0,0,0,0,0,0,0,0,0,0,0,0,0,0,0,0,0,0,0,0,0,0,0,0,0,0,0,0,0,0,0,0,0,0,0,0,0,0,0,0,0,0,0,0,0,0,0,0,0,0,0,0,0,0,0,0,0,0,0,0,0,0,0,0,0,0,0,0,0,0,0,0,0,0,0,0,0,0,0,0,0,0,0,0,0,0,0,0,0,0,0,0,0,0,0,0,0,0,0,0,0,0,0,0,0,0,0,0,0,0,0,0,0,0,0,0,0,0,0,0,0,0,0,0,0,0,0,0,0,0,0,0,0,0,0,0,0,0,0,0,0,0,0,0,0,0,0,0,0,0,0,0,0,0,0,0,0,0,0,0,0,0,0,0,0,0,0,0,0,0,0,0,0,0,0,0,0,0,0,0,0,0,0,0,0,0,0,0,0,0,0,0,0,0,0,0,0,0,0,0,0,0,0,0,0,0,0,0,0,0,0,0,0,0,0,0,0,0,0,0,0,0,0,0,0,442,442,443,443,0,0,0,446,447,447,448,448,449,450,450,451,451,452,452,453,453,454,454,455,455,456,457,457,458,458,459,460,460,461,461,462,463,464,464,465,466,466,467,467,468,468,469,470,470,471,472,473,473,474,475,476,476,477,478,479,479,480,481,482,482,483,484,484,485,486,486,487,488,489,490,490,491,492,493,494,494,495,496,496,497,498,499,499,500,501,502,502,503,504,505,506,507,508,508,509,510,511,512,513,513,514,515,516,517,518,519,520,521,522,523,524,524,525,526,526,527,528,529,530,531,532,533,534,535,536,537,538,539,540,541,541,542,543,544,545,546,547,548,549,550,551,552,553,554,555,556,558,559,560,561,563,564,565,567,568,569,570,571,571,572,573,573,574,575,576,577,579,580,581,582,0,0,0,0,0,0,0,0,0,0,0,0,0,0,0,0,0,0,0,0,0,0,0,0,0,0,0,0,0,0,0,0,0,0,0,0,0,0,0,0,0,0,0,0,0,0,0,0,0,0,0,0,0,0,0,0,0,0,0,0,0,0,0,0,0,0,0,0,0,0,0,0,0,0,0,0,0,0,0,0,0,0,0,0,0,0,0,0,0,0,0,0,0,0,0,0,0,0,0,0,0,0,0,0,0,0,0,0,0,0,0,0,0,0,0,0,0,0,0,0,0,0,0,0,0,0,0,0,0,0,0,0,0,0,0,0,0,0,0,0,0,0,0,0,0,0,0,0,0,0,0,0,0,0,0,0
0,0,0,0,0,0,0,0,0,0,0,0,0,0,0,0,0,0,0,0,0,0,0,0,0,0,0,0,0,0,0,0,0,0,0,0,0,0,0,0,0,0,0,0,0,0,0,0,0,0,0,0,0,0,0,0,0,0,0,0,0,0,0,0,0,0,0,0,0,0,0,0,0,0,0,0,0,0,0,0,0,0,0,0,0,0,0,0,0,0,0,0,0,0,0,0,0,0,0,0,0,0,0,0,0,0,0,0,0,0,0,0,0,0,0,0,0,0,0,0,0,0,0,0,0,0,0,0,0,0,0,0,0,0,0,0,0,0,0,0,0,0,0,0,0,0,0,0,0,0,0,0,0,0,0,0,0,0,0,0,0,0,0,0,0,0,0,0,0,0,0,0,0,0,0,0,0,0,0,0,0,0,0,0,0,0,0,0,0,0,0,0,0,0,0,0,0,0,0,0,0,0,0,0,0,0,0,0,0,0,0,0,0,0,0,0,0,0,0,0,0,0,0,0,0,0,0,0,0,0,0,0,0,0,0,0,0,0,0,0,0,0,0,0,0,0,0,0,0,0,0,0,0,0,0,0,0,0,0,0,0,0,0,0,0,0,0,0,0,0,0,0,0,0,0,0,0,0,0,0,0,0,0,0,0,0,0,0,0,0,0,0,0,0,0,0,0,0,0,0,0,0,0,0,0,0,0,0,0,0,0,0,0,0,0,0,0,0,0,0,0,450,450,451,451,452,452,453,453,454,454,455,455,456,457,457,458,458,459,459,460,461,461,462,463,463,464,465,465,466,467,467,468,468,469,469,470,471,471,472,473,474,475,475,476,477,478,478,479,480,481,481,482,483,483,484,485,485,486,487,488,488,489,490,491,492,492,493,494,495,495,496,497,498,498,499,500,500,501,502,503,503,504,505,506,507,508,508,509,510,511,512,513,514,515,516,516,517,518,519,520,521,522,523,524,524,525,526,527,527,528,529,530,531,532,533,534,536,536,537,538,539,540,541,541,542,543,544,545,546,546,547,549,549,551,552,553,554,555,557,558,559,560,562,563,564,565,567,568,569,570,571,571,572,573,573,574,575,576,577,578,579,580,0,0,0,0,0,0,0,0,0,0,0,0,0,0,0,0,0,0,0,0,0,0,0,0,0,0,0,0,0,0,0,0,0,0,0,0,0,0,0,0,0,0,0,0,0,0,0,0,0,0,0,0,0,0,0,0,0,0,0,0,0,0,0,0,0,0,0,0,0,0,0,0,0,0,0,0,0,0,0,0,0,0,0,0,0,0,0,0,0,0,0,0,0,0,0,0,0,0,0,0,0,0,0,0,0,0,0,0,0,0,0,0,0,0,0,0,0,0,0,0,0,0,0,0,0,0,0,0,0,0,0,0,0,0,0,0,0,0,0,0,0,0,0,0,0,0,0,0,0,0,0,0,0,0,0,0,0
0,0,0,0,0,0,0,0,0,0,0,0,0,0,0,0,0,0,0,0,0,0,0,0,0,0,0,0,0,0,0,0,0,0,0,0,0,0,0,0,0,0,0,0,0,0,0,0,0,0,0,0,0,0,0,0,0,0,0,0,0,0,0,0,0,0,0,0,0,0,0,0,0,0,0,0,0,0,0,0,0,0,0,0,0,0,0,0,0,0,0,0,0,0,0,0,0,0,0,0,0,0,0,0,0,0,0,0,0,0,0,0,0,0,0,0,0,0,0,0,0,0,0,0,0,0,0,0,0,0,0,0,0,0,0,0,0,0,0,0,0,0,0,0,0,0,0,0,0,0,0,0,0,0,0,0,0,0,0,0,0,0,0,0,0,0,0,0,0,0,0,0,0,0,0,0,0,0,0,0,0,0,0,0,0,0,0,0,0,0,0,0,0,0,0,0,0,0,0,0,0,0,0,0,0,0,0,0,0,0,0,0,0,0,0,0,0,0,0,0,0,0,0,0,0,0,0,0,0,0,0,0,0,0,0,0,0,0,0,0,0,0,0,0,0,0,0,0,0,0,0,0,0,0,0,0,0,0,0,0,0,0,0,0,0,0,0,0,0,0,0,0,0,0,0,0,0,0,0,0,0,0,0,0,0,0,0,0,0,0,0,0,0,0,0,0,0,0,0,0,0,799,798,0,0,0,0,0,0,0,0,0,0,0,0,0,0,0,0,0,0,0,0,0,0,0,0,454,454,454,455,455,456,456,457,458,458,459,459,460,460,461,462,462,463,464,465,465,466,466,467,468,468,469,469,470,470,471,472,473,473,474,475,476,477,477,478,479,480,480,481,482,482,483,484,484,485,486,487,487,488,489,490,490,491,492,493,493,494,495,496,496,497,498,499,499,500,501,501,502,503,504,505,505,506,507,508,509,510,511,511,512,513,514,515,516,517,518,519,519,520,521,522,523,524,525,525,526,527,528,529,530,531,532,533,534,535,536,537,538,539,539,540,541,542,542,543,544,545,546,546,547,548,549,551,552,553,554,556,557,558,559,561,562,563,564,565,567,568,569,570,571,571,572,573,573,574,575,576,577,578,578,579,0,0,0,0,0,0,0,0,0,0,0,0,0,0,0,0,0,0,0,0,0,0,0,0,0,0,0,0,0,0,0,0,0,0,0,0,0,0,0,0,0,0,0,0,0,0,0,0,0,0,0,0,0,0,0,0,0,0,0,0,0,0,0,0,0,0,0,0,0,0,0,0,0,0,0,0,0,0,0,0,0,0,0,0,0,0,0,0,0,0,0,0,0,0,0,0,0,0,0,0,0,0,0,0,0,0,0,0,0,0,0,0,0,0,0,0,0,0,0,0,0,0,0,0,0,0,0,0,0,0,0,0,0,0,0,0,0,0,0,0,0,0,0,0,0,0,0,0,0,0,0,0,0,0,0,0,0
